# .PCD v0.7 - Point Cloud Data file format
VERSION 0.7
FIELDS x y z rgb
SIZE 4 4 4 4
TYPE F F F U
COUNT 1 1 1 1
WIDTH 138
HEIGHT 1
VIEWPOINT 0 0 0 1 0 0 0
POINTS 138
DATA ascii
0.85747111 -1.4126154 4.7688379 26112
0.857463 -1.4284041 4.7687807 945166
0.83955383 -1.4281304 4.7584662 419846
0.81448728 -1.4280628 4.7440295 1142033
0.79330468 -1.427788 4.7318301 485639
0.7788595 -1.428538 4.7235079 2192417
0.7607404 -1.4281133 4.7130733 879373
0.744403 -1.4283803 4.7036624 26112
0.73155892 -1.4280789 4.6962662 1076496
0.71077007 -1.4278325 4.6842937 1076496
0.69749612 -1.4279234 4.6766477 26112
0.68570417 -1.4280596 4.6698556 1273363
0.66442341 -1.4281075 4.657599 945166
0.64066446 -1.4281855 4.6439142 945166
0.61981136 -1.4276899 4.6319051 1534999
0.61981702 -1.4123544 4.6319594 550408
0.61982757 -1.3874335 4.6320481 550408
0.61983722 -1.3625121 4.6321368 550408
0.61984771 -1.3375895 4.6322255 550408
0.61985743 -1.3126661 4.6323142 550408
0.61986715 -1.2877417 4.6324024 550408
0.62009633 -1.2621436 4.6326199 484871
0.61967963 -1.2372824 4.6324625 550408
0.62011629 -1.2122889 4.6327972 484871
0.61969888 -1.1874282 4.6326394 550408
0.6201362 -1.1624303 4.6329741 484871
0.61971885 -1.1375705 4.6328173 550408
0.62015605 -1.1125678 4.633152 484871
0.61973876 -1.0877088 4.6329942 550408
0.62017572 -1.0627019 4.6333294 484871
0.61975902 -1.0378439 4.6331716 550408
0.62018496 -1.012195 4.6335025 484871
0.61976826 -0.98733741 4.6333451 615945
0.62020522 -0.96232146 4.6336799 484871
0.54936242 -0.85969198 4.5932183 593161
0.54245359 -0.85852361 4.5892434 2171169
0.54245603 -0.83805716 4.589313 2171169
0.54245943 -0.8138687 4.589395 2171169
0.54246277 -0.78781885 4.5894837 2171169
0.54246676 -0.76176816 4.5895724 2171169
0.5424695 -0.73757732 4.5896544 2171169
0.54247254 -0.71338564 4.5897369 2171169
0.54247618 -0.68733239 4.5898256 2171169
0.54247975 -0.66313922 4.5899081 2171169
0.54248267 -0.63894528 4.5899906 2171169
0.54248607 -0.61288941 4.5900788 2171169
0.54248989 -0.58683264 4.5901675 2171169
0.54249299 -0.56263632 4.59025 2171169
0.54249603 -0.5384391 4.590332 2171169
0.54250002 -0.51237983 4.5904207 2171169
0.542503 -0.48818108 4.5905032 2171169
0.54250604 -0.46398157 4.5905857 2171169
0.54250968 -0.43791974 4.5906739 2171169
0.54251295 -0.41185695 4.5907631 2171169
0.54251617 -0.38765502 4.5908456 2171169
0.54251945 -0.36345235 4.5909276 2171169
0.54252285 -0.33738703 4.5910163 2171169
0.54252595 -0.31318274 4.5910988 2171169
0.54252917 -0.28897768 4.5911813 2171169
0.54253256 -0.26290983 4.5912695 2171169
0.54253626 -0.2368411 4.5913582 2171169
0.54253948 -0.21263359 4.5914407 2171169
0.54254282 -0.18842535 4.5915232 2171169
0.54254609 -0.16235402 4.5916119 2171169
0.54254931 -0.13814421 4.5916944 2171169
0.54255253 -0.11393355 4.5917768 2171169
0.54255587 -0.087859713 4.5918651 2171169
0.54255968 -0.061784968 4.5919538 2171169
0.54256284 -0.037571922 4.5920362 2171169
0.54256618 -0.013358089 4.5921187 2171169
0.54256934 0.012719198 4.5922074 2171169
0.54257268 0.036934614 4.5922899 2171169
0.54257584 0.061150823 4.5923724 2171169
0.54257983 0.087230675 4.5924611 2171169
0.54949319 0.087035343 4.5964422 657930
0.55810678 0.08679197 4.6014028 657930
0.56496727 0.086598136 4.6053534 657930
0.57521248 0.086308666 4.6112533 657930
0.58201665 0.086116418 4.6151714 657930
0.58201301 0.062144805 4.6150899 657930
0.5820089 0.038173951 4.6150079 657930
0.58200467 0.012360025 4.6149192 657930
0.58200061 -0.013453021 4.614831 657930
0.58199644 -0.039265193 4.6147428 657930
0.58199263 -0.063232854 4.6146612 657930
0.58198875 -0.08719977 4.6145792 657930
0.58198476 -0.11300944 4.614491 657930
0.58198071 -0.13881823 4.6144028 657930
0.58197683 -0.16278279 4.6143208 657930
0.57516629 -0.21288806 4.6102319 657930
0.57516223 -0.23873904 4.6101432 657930
0.57535183 -0.26331758 4.6101704 657930
0.57497352 -0.28722894 4.6098733 657930
0.57515085 -0.31259418 4.6098914 657930
0.57514673 -0.33844179 4.6098027 657930
0.5753653 -0.36354578 4.6098452 657930
0.57491207 -0.38744757 4.6095047 657930
0.57513535 -0.41228712 4.609551 657930
0.57513154 -0.43813151 4.6094623 657930
0.57523406 -0.46373153 4.609436 657930
0.57519913 -0.48824841 4.6093345 657930
0.57493871 -0.51246101 4.6091042 657930
0.57511568 -0.537808 4.6091218 657930
0.57511199 -0.5636481 4.6090336 657930
0.57533509 -0.58846879 4.6090798 657930
0.57488239 -0.61238968 4.6087394 657930
0.5751003 -0.63747168 4.6087818 657930
0.57509673 -0.6633082 4.6086931 657930
0.5753153 -0.68838286 4.608736 657930
0.57505262 -0.71286386 4.6085029 657930
0.57490408 -0.73762631 4.6083355 657930
0.57508087 -0.76295537 4.6083531 657930
0.57525855 -0.78828013 4.6083713 657930
0.57510948 -0.81304026 4.6082029 657930
0.61898309 -0.89734143 4.6331921 1003279
0.66289407 -0.91477549 4.6584249 25088
0.6850276 -0.91727805 4.671164 26112
0.69772863 -0.91871423 4.6784749 24576
0.71183074 -0.91978002 4.6865935 24832
0.72966337 -0.92232507 4.6968565 25088
0.74250847 -0.92182982 4.7042561 214787
0.78904402 -0.9399758 4.7309985 25088
0.81123531 -0.94302213 4.7437696 25600
0.81196582 -0.96261388 4.7441254 26112
0.81126171 -0.9874016 4.7436376 26112
0.81205338 -1.0128841 4.7440085 26112
0.81164289 -1.0376509 4.74369 26112
0.81123364 -1.0624133 4.7433715 26112
0.81202537 -1.0879002 4.7437425 26112
0.81132144 -1.1126735 4.7432551 26112
0.81145304 -1.1374059 4.7432485 26112
0.81198478 -1.162516 4.7434711 26112
0.81115341 -1.1876773 4.742909 26112
0.81168443 -1.2127876 4.7431312 26112
0.81181616 -1.2375203 4.743125 26112
0.85751456 -1.3376141 4.7691126 26112
0.85776484 -1.3627644 4.7691727 26112
0.85722148 -1.3874667 4.7687774 26112
