# .PCD v0.7 - Point Cloud Data file format
VERSION 0.7
FIELDS x y z rgb
SIZE 4 4 4 4
TYPE F F F U
COUNT 1 1 1 1
WIDTH 187
HEIGHT 1
VIEWPOINT 0 0 0 1 0 0 0
POINTS 187
DATA ascii
-0.52314186 -0.81684649 5.1421452 657930
-0.52315092 -0.79013616 5.1422348 657930
-0.52316034 -0.76342493 5.1423244 657930
-0.5231688 -0.73849356 5.1424084 657930
-0.5231775 -0.71356136 5.1424913 657930
-0.52318567 -0.68862838 5.1425753 657930
-0.52319413 -0.66369456 5.1426582 657930
-0.52320272 -0.63875997 5.1427422 657930
-0.52321136 -0.61382467 5.1428256 657930
-0.52321982 -0.58888841 5.142909 657930
-0.52322841 -0.56395137 5.1429925 657930
-0.52323675 -0.5390135 5.1430759 657930
-0.52324557 -0.51407492 5.1431594 657930
-0.52325416 -0.48913544 5.1432428 657930
-0.52326238 -0.46419516 5.1433268 657930
-0.52327091 -0.43925405 5.1434097 657930
-0.52327949 -0.41431218 5.1434937 657930
-0.52328777 -0.38936952 5.1435771 657930
-0.52329659 -0.36442602 5.1436605 657930
-0.5233047 -0.33948165 5.143744 657930
-0.52388382 -0.31254897 5.1441641 657930
-0.52410531 -0.28953457 5.1443648 657930
-0.52411366 -0.26459309 5.1444483 657930
-0.5241226 -0.23965076 5.1445317 657930
-0.52413082 -0.21470766 5.1446157 657930
-0.52413952 -0.18976368 5.1446991 657930
-0.52414811 -0.16481896 5.1447825 657930
-0.52415645 -0.13987339 5.144866 657930
-0.52416486 -0.11492702 5.1449494 657930
-0.52417368 -0.089979842 5.1450329 657930
-0.52418184 -0.065031856 5.1451163 657930
-0.52419055 -0.040083054 5.1451998 657930
-0.52419877 -0.015133452 5.1452837 657930
-0.52420771 0.009816967 5.1453671 657930
-0.52421606 0.03476819 5.1454506 657930
-0.52422464 0.059720233 5.1455345 657930
-0.52423286 0.084673077 5.145618 657930
-0.52814746 0.084560022 5.1478825 657930
-0.53672856 0.084312148 5.1528468 657930
-0.54527599 0.084065273 5.1577916 657930
-0.55146456 0.083886512 5.1613712 657930
-0.56147641 0.083597355 5.1671638 657930
-0.56838048 0.08339791 5.1711574 657930
-0.56837165 0.058740567 5.1710744 657930
-0.56836212 0.034084 5.1709919 657930
-0.56835306 0.0094282273 5.1709085 657930
-0.56834418 -0.015226751 5.1708255 657930
-0.56833512 -0.039880939 5.170742 657930
-0.56832594 -0.064534344 5.1706595 657930
-0.56831688 -0.089186952 5.1705766 657930
-0.56830794 -0.11383875 5.1704936 657930
-0.56829798 -0.14025052 5.1704049 657930
-0.56828809 -0.16666143 5.1703157 657930
-0.56827927 -0.19131076 5.1702328 657930
-0.56827009 -0.2159593 5.1701498 657930
-0.56826097 -0.24060705 5.1700668 657930
-0.56825191 -0.26525402 5.1699839 657930
-0.5443505 -0.34123904 5.1559157 657930
-0.54434156 -0.36604246 5.1558323 657930
-0.54433292 -0.39084512 5.1557488 657930
-0.54432422 -0.41564694 5.1556659 657930
-0.54431528 -0.44044802 5.1555824 657930
-0.54430658 -0.46524829 5.155499 657930
-0.54429734 -0.49004772 5.155416 657930
-0.54428875 -0.51484632 5.155333 657930
-0.54428017 -0.53964418 5.1552496 657930
-0.54427135 -0.56444126 5.1551661 657930
-0.54426217 -0.58923751 5.1550832 657930
-0.54425377 -0.61403298 5.1549997 657930
-0.54424506 -0.63882756 5.1549163 657930
-0.54428756 -0.6645568 5.15486 657930
-0.54417461 -0.69102091 5.1547117 657930
-0.54421699 -0.71674836 5.154655 657930
-0.54420841 -0.7415396 5.154572 657930
-0.54419935 -0.76633018 5.1544886 657930
-0.54419088 -0.79111993 5.1544056 657930
-0.54418218 -0.81590885 5.1543221 657930
-0.54417318 -0.84069693 5.1542392 657930
-0.54416567 -0.86194336 5.1541672 657930
-0.52312589 -0.86314225 5.1419907 1710618
-0.52313328 -0.84177536 5.1420622 657930
0.6729126 -0.86094356 4.4499741 594697
0.64062375 -0.85932255 4.4686613 592905
0.64091575 -0.83806509 4.4685597 657930
0.68840039 -0.73764384 4.441401 657930
0.68775916 -0.71249729 4.4418516 657930
0.68616122 -0.68701899 4.4428568 657930
0.68645936 -0.662332 4.4427619 657930
0.68698275 -0.63792682 4.4425364 657930
0.68655288 -0.61292613 4.4428635 657930
0.68656433 -0.58716744 4.4429379 657930
0.68621612 -0.56190324 4.4432192 657930
0.68658596 -0.5374862 4.4430823 657930
0.68695652 -0.51307189 4.442945 657930
0.68660808 -0.48780406 4.4432263 657930
0.68661958 -0.46204111 4.4433007 657930
0.68627077 -0.43676701 4.4435816 657930
0.68702471 -0.4129172 4.4432211 657930
0.68665147 -0.38842788 4.4435143 657930
0.68666297 -0.3626616 4.4435883 657930
0.68667436 -0.33689439 4.4436631 657930
0.68624419 -0.31186372 4.4439912 657930
0.68714625 -0.28803936 4.4435439 657930
0.68670624 -0.26326892 4.4438767 657930
0.68671793 -0.23749837 4.4439511 657930
0.68672919 -0.21172692 4.444026 657930
0.68635535 -0.18721853 4.4443192 657930
0.68864763 -0.16355325 4.4430676 657930
0.68845314 -0.13805905 4.4432607 657930
0.68846416 -0.11228991 4.443336 657930
0.68847495 -0.086519904 4.4434104 657930
0.68848616 -0.062589869 4.4434795 657930
0.68849659 -0.03865904 4.4435487 657930
0.68850762 -0.012886544 4.4436231 657930
0.68851924 0.01288682 4.4436979 657930
0.68853033 0.038661063 4.4437728 657930
0.68854082 0.062595055 4.4438424 657930
0.68855155 0.086529821 4.4439116 657930
0.71045101 0.08628314 4.4312401 657930
0.72387302 0.08613193 4.4234738 657930
0.73680097 0.086701572 4.4159951 657930
0.75720501 0.087581165 4.404192 657930
0.77045947 0.087428682 4.396522 657930
0.78738576 0.088339597 4.3867316 657930
0.80339068 0.088863477 4.3774729 657930
0.81648105 0.088709742 4.3698988 657930
0.83765525 0.088461071 4.3576469 657930
0.86355931 0.088156864 4.3426576 657930
0.88546646 0.088450946 4.3299837 657930
0.91165173 0.087592043 4.3148298 657930
0.93072194 0.087368079 4.3037953 657930
0.94337779 0.087219447 4.2964721 657930
0.96227533 0.086997516 4.2855377 657930
0.97796166 0.086813301 4.2764606 657930
0.99045336 0.086666584 4.2692327 657930
1.0122169 0.086410992 4.25664 657930
1.012201 0.061721172 4.2565713 657930
1.0121846 0.037032153 4.2565026 657930
1.0121685 0.01234393 4.2564344 657930
1.0121518 -0.012343489 4.2563653 657930
1.0121363 -0.037030108 4.2562971 657930
1.0110569 -0.061379626 4.256845 657930
1.0105548 -0.086419143 4.2570567 657930
1.0105391 -0.11110857 4.256988 657930
1.0108097 -0.13709758 4.2567496 657930
1.0102007 -0.16346474 4.2570186 657930
1.0104884 -0.18869863 4.256773 657930
1.0104723 -0.21338476 4.2567043 657930
1.0104564 -0.23807001 4.2566357 657930
1.0104401 -0.26275459 4.2565675 657930
1.0104243 -0.2874383 4.2564988 657930
0.97611374 -0.36316746 4.2761126 657930
0.97609836 -0.38796285 4.2760429 657930
0.97608244 -0.41275743 4.2759738 657930
0.97606689 -0.43755117 4.2759047 657930
0.97605139 -0.46234414 4.2758355 657930
0.97603577 -0.48713627 4.2757664 657930
0.9760204 -0.5119276 4.2756972 657930
0.97600472 -0.53671813 4.2756281 657930
0.97598881 -0.56150788 4.2755589 657930
0.97597343 -0.5862968 4.2754898 657930
0.97595769 -0.61108482 4.2754211 657930
0.97594237 -0.63587219 4.275352 657930
0.97592533 -0.66242909 4.2752781 657930
0.97590888 -0.68898511 4.2752037 657930
0.9758929 -0.71376985 4.2751346 657930
0.97587746 -0.73855382 4.2750654 657930
0.97586548 -0.75802648 4.2750115 657930
0.96174586 -0.81245691 4.2830091 657930
0.96170247 -0.83750582 4.2829552 657930
0.96165109 -0.859007 4.2829175 986895
0.94122291 -0.85938215 4.2947354 855309
0.92857194 -0.85847038 4.3020587 986895
0.91268963 -0.85911316 4.3112459 855309
0.89514965 -0.85844946 4.3213964 921102
0.88233846 -0.85902536 4.3288069 789516
0.86303365 -0.85899258 4.3399773 592905
0.84850073 -0.85930669 4.3483844 657930
0.83552343 -0.8592422 4.3558936 593161
0.81271505 -0.85926002 4.3690906 592649
0.78812158 -0.85894591 4.3833213 592649
0.76668358 -0.85846192 4.3957262 592649
0.75342911 -0.85922992 4.4033933 592649
0.73678935 -0.85901761 4.4130211 592905
0.72008628 -0.85932916 4.4226847 592649
0.70834577 -0.85973048 4.4294763 593417
0.68813205 -0.85924119 4.4411736 592649
