# .PCD v0.7 - Point Cloud Data file format
VERSION 0.7
FIELDS x y z rgb
SIZE 4 4 4 4
TYPE F F F U
COUNT 1 1 1 1
WIDTH 308
HEIGHT 1
VIEWPOINT 0 0 0 1 0 0 0
POINTS 308
DATA ascii
1.585427 0.066669762 3.9250042 657930
1.5854446 0.087810181 3.925051 657930
1.5933434 0.087707981 3.9204843 657930
1.6130083 0.087453492 3.9091148 657930
1.6273694 0.08726763 3.900811 657930
1.6390619 0.087116338 3.8940506 657930
1.6610472 0.086831808 3.8813393 657930
1.6739198 0.086665221 3.8738968 657930
1.6880074 0.086482912 3.8657513 657930
1.7081896 0.086707331 3.854084 657930
1.7210983 0.087648384 3.8466232 657930
1.7376691 0.087628394 3.8370423 657930
1.7538564 0.088802479 3.8276868 657930
1.7651194 0.088651329 3.8211749 986895
1.7650958 0.063321292 3.8211205 986895
1.765071 0.037992112 3.8210669 986895
1.7650476 0.012663762 3.8210125 986895
1.7650237 -0.012663752 3.8209579 986895
1.7649997 -0.037990421 3.820904 986895
1.7649761 -0.063316241 3.8208494 986895
1.7649518 -0.088641241 3.8207958 986895
1.764379 -0.11347307 3.8210604 986895
1.7634386 -0.13663498 3.8215418 921102
1.7636328 -0.16147648 3.8213625 921102
1.7636085 -0.186803 3.8213084 921102
1.7635849 -0.21212868 3.821254 921102
1.763561 -0.23745358 3.8212001 921102
1.7635367 -0.26277751 3.821146 921102
1.763513 -0.28810069 3.8210919 855309
1.763489 -0.31342298 3.8210373 657930
1.7636826 -0.33825135 3.8208587 657930
1.7634424 -0.3624818 3.8209324 657930
1.7632021 -0.38671404 3.8210065 657930
1.763396 -0.41153899 3.820828 657930
1.7633718 -0.43685728 3.8207734 657930
1.7633482 -0.46217474 3.8207192 657930
1.7633241 -0.48749122 3.8206651 657930
1.7633008 -0.51280689 3.820611 657930
1.7632763 -0.5381217 3.8205566 657930
1.7633859 -0.56318849 3.8204257 657930
1.7633091 -0.58796692 3.8204038 657930
1.7632062 -0.61247838 3.8203974 657930
1.763103 -0.63698995 3.8203912 657930
1.7630266 -0.66176808 3.8203688 657930
1.7624623 -0.68738675 3.8206265 657930
1.8052558 -0.77359706 3.7956541 2171169
1.8442459 -0.79158211 3.7730639 789516
1.8622401 -0.79298168 3.7626562 789516
1.8793724 -0.79376239 3.7527494 921102
1.8910407 -0.79528195 3.7459991 855309
1.9127223 -0.79624599 3.7334611 789516
1.9381378 -0.79704481 3.7187653 1250067
1.9582037 -0.79778224 3.7071629 791052
1.9708178 -0.79659462 3.699873 419334
1.9818374 -0.79422045 3.6935086 222723
2.0267854 -0.77401501 3.6675761 26112
2.0350487 -0.77229732 3.6628034 747019
2.0466073 -0.77064764 3.6561251 26112
2.0578403 -0.76765919 3.6496391 91649
2.0909767 -0.74851614 3.6305327 26112
2.1010029 -0.74614429 3.6247423 353797
2.1114495 -0.74343675 3.6187096 288260
2.1215558 -0.74074453 3.6128745 353797
2.1213408 -0.76319152 3.6129384 26112
2.1212668 -0.78836584 3.6129131 26112
2.1212382 -0.81326449 3.6128631 26112
2.1212091 -0.8381635 3.6128125 26112
2.1211801 -0.86306214 3.6127629 26112
2.121151 -0.88796091 3.6127126 26112
2.1211221 -0.91285956 3.6126628 26112
2.1210933 -0.93775845 3.6126125 26112
2.1210639 -0.96265703 3.6125624 26112
2.1210351 -0.98755604 3.6125126 26112
2.1210921 -1.0130174 3.6124105 26112
2.1209757 -1.0384586 3.6124096 26112
2.1209471 -1.0633575 3.6123593 26112
2.120918 -1.0882564 3.6123092 26112
2.1208892 -1.1131548 3.6122594 26112
2.1207712 -1.1383283 3.6122596 26112
2.1208301 -1.1635072 3.6121578 26112
2.1105046 -1.2129582 3.6179945 26112
2.1104755 -1.2380337 3.6179442 26112
2.1104465 -1.2631098 3.6178935 26112
2.1104217 -1.284006 3.6178517 91649
2.1000068 -1.2841644 3.6238725 157442
2.0894415 -1.2837604 3.629982 157442
2.078722 -1.2844884 3.6361773 485639
2.0678468 -1.2840794 3.6424663 288516
2.0568111 -1.2842431 3.6488464 157442
2.0456119 -1.2838273 3.6553226 157442
2.0344028 -1.2836879 3.6618025 91649
2.0238698 -1.2843771 3.667891 485639
2.0133488 -1.2841741 3.6739736 485639
2.0026882 -1.2839679 3.6801376 91649
1.9918753 -1.2837589 3.6863894 157442
1.9808629 -1.2839196 3.6927564 91649
1.9696274 -1.2842599 3.6992509 419846
1.9585297 -1.2838831 3.7056682 354309
1.9483753 -1.2842079 3.7115378 485639
1.9380927 -1.2837584 3.717484 91649
1.9276778 -1.2840855 3.7235043 224771
1.9157966 -1.2838674 3.7303741 292868
1.903574 -1.284059 3.7374399 426502
1.8928888 -1.2839811 3.7436182 559624
1.8832715 -1.2838075 3.7491784 495623
1.8735374 -1.2841711 3.7548048 168962
1.8623378 -1.2841147 3.7612803 236035
1.8508028 -1.2836256 3.7679503 105985
1.8393012 -1.2835642 3.7746 172546
1.839373 -1.2616721 3.7746179 41472
1.8393048 -1.236869 3.774724 41472
1.8394305 -1.2120929 3.7747176 41472
1.83951 -1.1868718 3.7747395 41472
1.8393449 -1.1621023 3.7749019 41472
1.839424 -1.1368786 3.7749233 41472
1.8395506 -1.1121082 3.7749169 41472
1.8394823 -1.0872967 3.7750235 41472
1.8397002 -1.0616984 3.7749665 41472
1.8394912 -1.0364907 3.7751548 41472
1.8397142 -1.0116963 3.7750926 41472
1.8395486 -0.98690736 3.7752542 41472
1.8397716 -0.96211851 3.7751918 41472
1.7639536 -0.85836244 3.8193047 921102
1.7517164 -0.8575263 3.8263819 657930
1.7378181 -0.85820508 3.8344152 855309
1.7174932 -0.85846716 3.8461659 921102
1.705194 -0.85762799 3.8532784 921102
1.6870638 -0.85821062 3.863759 921102
1.6705136 -0.85842514 3.8733265 657930
1.658933 -0.85830176 3.8800225 1052688
1.6381671 -0.85820806 3.8920283 789516
1.623957 -0.8579312 3.9002442 657930
1.6108456 -0.85833091 3.9078236 921102
1.5897031 -0.85877013 3.9200461 986895
1.5620517 -0.85845292 3.936034 921102
1.5435704 -0.85834932 3.9467187 657930
1.531448 -0.85853904 3.9537265 1118481
1.5125803 -0.85839123 3.9646354 789516
1.4979299 -0.85750794 3.9731078 657930
1.485515 -0.85878199 3.9802821 986895
1.4639704 -0.85843879 3.992739 789516
1.4636302 -0.83749413 3.9929919 657930
1.4642085 -0.8125205 3.9927251 657930
1.4639053 -0.78753299 3.9929674 657930
1.4640419 -0.76255232 3.9929552 657930
1.4643342 -0.73739314 3.9928536 657930
1.4636722 -0.71220434 3.993304 657930
1.4644996 -0.68742967 3.9928923 657930
1.4637154 -0.66241395 3.993413 657930
1.4981378 -0.5876863 3.9737122 657930
1.4981569 -0.56300277 3.973768 657930
1.4981695 -0.54654658 3.973805 657930
1.5148718 -0.54543257 3.9641514 921102
1.5918183 -0.43796435 3.9199538 855309
1.5916104 -0.4124971 3.9201422 855309
1.5914025 -0.38702634 3.9203305 921102
1.5918914 -0.36274213 3.920114 855309
1.5916725 -0.33780944 3.9203072 855309
1.5916942 -0.31182942 3.9203644 855309
1.5917147 -0.28747231 3.9204183 855309
1.5917349 -0.26311445 3.9204719 855309
1.5917565 -0.23713186 3.9205291 855309
1.5917764 -0.21277241 3.9205828 855309
1.5917963 -0.18841214 3.9206371 855309
1.5918186 -0.16242705 3.9206939 855309
1.5916103 -0.13693956 3.9208825 921102
1.5920987 -0.11266457 3.9206655 855309
1.5918804 -0.087714888 3.9208586 855309
1.5919025 -0.061726335 3.9209161 855309
1.5919228 -0.037361279 3.9209697 855309
1.5919427 -0.012995424 3.9210236 789516
1.5919646 0.012995672 3.9210808 657930
1.5919852 0.037363123 3.9211342 657930
-0.8636409 0.057736192 5.3409014 986895
-0.86366022 0.083664656 5.3409824 855309
-0.87077951 0.083447911 5.3450975 657930
-0.87722379 0.083251722 5.3488226 657930
-0.88748199 0.082939394 5.3547525 657930
-0.89450431 0.082725585 5.3588123 657930
-0.90085566 0.082532227 5.362484 657930
-0.91789943 0.083607994 5.3723407 657930
-0.93545312 0.084414974 5.3824911 657930
-0.9415893 0.084458783 5.3860388 657930
-0.95022976 0.084187455 5.3910336 657930
-0.95821893 0.083936602 5.3956518 657930
-0.96433365 0.083744571 5.3991861 657930
-0.97042894 0.083553188 5.40271 2236962
-0.97040802 0.058440704 5.4026303 2236962
-0.97038728 0.033329044 5.4025512 2236962
-0.97036642 0.0082182065 5.4024715 2236962
-0.97034544 -0.016891815 5.4023919 2236962
-0.97032446 -0.042001009 5.4023123 2236962
-0.9703036 -0.067109384 5.4022331 2236962
-0.97028267 -0.092216946 5.402153 2236962
-0.97026169 -0.11732368 5.4020739 1710618
-0.97024095 -0.14242961 5.4019938 1447446
-0.97021914 -0.16753468 5.4019141 1447446
-0.97019827 -0.19263893 5.401835 1447446
-0.97017765 -0.21774243 5.4017553 1447446
-0.97015685 -0.24284506 5.4016762 1447446
-0.97013623 -0.26794684 5.4015965 1447446
-0.97011536 -0.29304782 5.4015169 1447446
-0.97009403 -0.31814802 5.4014368 1447446
-0.97012627 -0.34276453 5.4013901 1447446
-0.9700529 -0.3672998 5.4012814 1447446
-0.97003233 -0.39187458 5.4012036 1447446
-0.96995991 -0.415887 5.4010973 1381653
-0.96999228 -0.44049954 5.4010496 1447446
-0.96997154 -0.46559492 5.40097 1447446
-0.96995008 -0.49068943 5.4008904 1447446
-0.9699294 -0.51578319 5.4008112 1447446
-0.96990818 -0.54087603 5.4007316 1447446
-0.96988744 -0.5659681 5.4006519 1447446
-0.96986681 -0.59105939 5.4005728 1447446
-0.96984559 -0.61614972 5.4004927 657930
-0.96982509 -0.6412394 5.4004135 657930
-0.96980405 -0.66632819 5.4003339 657930
-0.96978283 -0.69141608 5.4002547 657930
-1.0349143 -0.79582369 5.4376297 661770
-1.1054885 -0.9007895 5.4781494 88577
-1.1143699 -0.90350175 5.4832773 26112
-1.1494164 -0.92252058 5.5034881 91137
-1.1599133 -0.92462218 5.509551 221955
-1.1607245 -0.94206417 5.509973 224259
-1.1605668 -0.96686536 5.5098157 224259
-1.1607814 -0.99165159 5.5098734 224259
-1.160624 -1.0164472 5.5097151 224259
-1.1608387 -1.0412391 5.5097728 224259
-1.1606808 -1.0660293 5.5096149 224259
-1.1607585 -1.0912473 5.5095921 224259
-1.1608319 -1.116441 5.5095668 224259
-1.1609066 -1.1416363 5.5095425 224259
-1.160983 -1.1668606 5.5095186 224259
-1.160825 -1.191637 5.5093608 224259
-1.1610396 -1.2164479 5.5094185 224259
-1.1608815 -1.241219 5.5092611 224259
-1.1609589 -1.2664423 5.5092378 224259
-1.1610286 -1.2883344 5.5092192 421382
-1.1499889 -1.2887406 5.5028348 354565
-1.1391468 -1.2887602 5.4965668 485639
-1.1282082 -1.2887433 5.490243 222979
-1.1176393 -1.2887627 5.4841323 485639
-1.1069164 -1.2883548 5.4779344 222979
-1.0952973 -1.2886406 5.4712162 419846
-1.0836575 -1.2887572 5.4644861 485639
-1.073581 -1.288358 5.4586611 91649
-1.0635194 -1.2887598 5.4528432 485639
-1.0524091 -1.2885673 5.4464197 288516
-1.0414433 -1.2883779 5.4400806 222979
-1.0305488 -1.2884951 5.4337821 288516
-1.0199584 -1.2887657 5.4276581 354309
-1.0092715 -1.2884227 5.4214807 222979
-0.99789679 -1.2889556 5.4149036 354309
-0.98652911 -1.2885841 5.4083319 354309
-0.97532558 -1.2888089 5.401854 354309
-0.96537697 -1.2887722 5.3961024 222979
-0.95556176 -1.2887381 5.3904281 354309
-0.94373417 -1.2890157 5.3835888 419846
-0.93208349 -1.2885249 5.3768549 157442
-0.92164958 -1.2887431 5.3708215 288516
-0.91135979 -1.288956 5.364872 354309
-0.90020692 -1.2886633 5.3584251 222979
-0.88921666 -1.2887477 5.3520708 157442
-0.88919318 -1.2678593 5.3521128 26112
-0.88916421 -1.2427933 5.3521638 26112
-0.88913524 -1.2177269 5.3522143 26112
-0.88910627 -1.1926609 5.3522649 26112
-0.87825835 -1.1429741 5.3461266 26112
-0.8782382 -1.1180972 5.3461819 26112
-0.87821889 -1.0932204 5.3462372 26112
-0.87819886 -1.0683432 5.3462925 26112
-0.87817836 -1.043466 5.3463478 26112
-0.87812018 -1.0181196 5.3463821 26112
-0.87813723 -0.99279046 5.3464603 26112
-0.87820458 -0.96768552 5.3465667 26112
-0.78876901 -0.86238432 5.2951427 921102
-0.78871036 -0.84110999 5.2951655 657930
-0.78880143 -0.81607115 5.2952862 657930
-0.78889364 -0.79103327 5.2954063 657930
-0.78868181 -0.76571786 5.295352 657930
-0.78900892 -0.74094737 5.2956076 657930
-0.78872049 -0.71585292 5.2955079 657930
-0.78904706 -0.69108528 5.2957635 657930
-0.78878403 -0.66598898 5.2956791 657930
-0.81266838 -0.59134024 5.3096881 657930
-0.81243449 -0.56603795 5.3096209 657930
-0.81279534 -0.54965729 5.3098736 657930
-0.86453593 -0.46695593 5.3400092 657930
-0.86455572 -0.44105494 5.3400898 657930
-0.86442584 -0.41604194 5.3400822 657930
-0.86474031 -0.39183041 5.3403296 657930
-0.86405748 -0.366873 5.3400016 657930
-0.86398524 -0.34074229 5.3400297 657930
-0.86400408 -0.31645167 5.340106 657930
-0.8640222 -0.29216021 5.3401823 657930
-0.86404204 -0.26624852 5.3402629 657930
-0.86364233 -0.24007657 5.3401022 855309
-0.8635093 -0.21633409 5.3400893 1052688
-0.86345011 -0.19178045 5.3401203 1052688
-0.86347026 -0.16586044 5.3402023 1052688
-0.86348885 -0.14155962 5.3402777 1052688
-0.86350709 -0.11725801 5.340354 1052688
-0.86352724 -0.091335461 5.340435 1052688
-0.86354715 -0.065412045 5.3405166 1052688
-0.86356533 -0.041108035 5.3405919 1052688
-0.86358345 -0.016803253 5.3406682 1052688
-0.86360359 0.0091226902 5.3407493 1052688
-0.86362219 0.033429049 5.3408256 1052688
