# .PCD v0.7 - Point Cloud Data file format
VERSION 0.7
FIELDS x y z rgb
SIZE 4 4 4 4
TYPE F F F U
COUNT 1 1 1 1
WIDTH 291
HEIGHT 1
VIEWPOINT 0 0 0 1 0 0 0
POINTS 291
DATA ascii
-1.0524158 0.081736512 5.4501057 26112
-1.0461624 0.081861429 5.4464903 26112
-1.0352654 0.081071138 5.4401884 26112
-1.0288982 0.081304528 5.4365082 26112
-1.0224925 0.08153934 5.4328051 26112
-1.0119128 0.081927173 5.4266891 26112
-0.9975177 0.081134573 5.4183645 26112
-0.98862493 0.081456304 5.4132242 26112
-0.98203266 0.081694797 5.4094133 26112
-0.97221911 0.081668593 5.4037399 26112
-0.96158946 0.081096992 5.3975925 26112
-0.96156549 0.057024233 5.3975148 26112
-0.96153998 0.031614996 5.3974314 26112
-0.96151447 0.0062066619 5.3973484 26112
-0.96149099 -0.017863542 5.3972702 26112
-0.9614656 -0.043270089 5.3971872 26112
-0.96144032 -0.068675719 5.3971043 26112
-0.96141648 -0.092743412 5.3970261 26112
-0.96139097 -0.11814724 5.3969431 26112
-0.9613657 -0.14355022 5.3968601 26112
-0.96134174 -0.16761534 5.3967814 26112
-0.9613167 -0.1930165 5.396699 26112
-0.96129072 -0.21841678 5.3966155 26112
-0.96132755 -0.24304304 5.3965707 26112
-0.96089995 -0.26771751 5.3962574 26112
-0.96073782 -0.29332235 5.3960948 26112
-0.96074963 -0.31841075 5.3960338 26112
-0.9606483 -0.34376645 5.3959074 26112
-0.96066296 -0.36818588 5.3958502 26112
-0.96063733 -0.39358419 5.3957672 26112
-0.9606123 -0.41898164 5.3956847 26112
-0.96058881 -0.44304147 5.395606 157186
-0.96056294 -0.46843711 5.3955235 419334
-0.96053791 -0.49383178 5.3954406 419334
-0.96051359 -0.51788908 5.3953619 419334
-0.96048892 -0.54328209 5.3952789 419334
-0.96046329 -0.56867409 5.3951964 419334
-0.96047735 -0.59308183 5.3951387 419334
-0.9603765 -0.61843508 5.3950124 419334
-0.96038842 -0.64350855 5.3949518 419334
-0.89363098 -0.72951847 5.3561249 26112
-0.89011359 -0.73039025 5.3540893 26112
-0.87696004 -0.74282008 5.3464508 222723
-0.8769362 -0.76804358 5.3463697 26112
-0.87640476 -0.79294378 5.3459954 26112
-0.87636733 -0.81804991 5.3459063 26112
-0.87631655 -0.843494 5.345809 26112
-0.87633407 -0.8686201 5.3457518 26112
-0.87631094 -0.89338493 5.3456717 26112
-0.8762877 -0.91814882 5.3455915 26112
-0.87626433 -0.94291198 5.345511 26112
-0.87624073 -0.96767443 5.3454313 26112
-0.87621832 -0.99243563 5.3453517 26112
-0.87623572 -1.0175533 5.345294 26112
-0.87617064 -1.0426431 5.3451896 26112
-0.87616098 -1.0677501 5.3451157 26112
-0.87611008 -1.0931871 5.3450184 26112
-0.87609982 -1.1182922 5.344945 26112
-0.87603486 -1.1433805 5.34484 26112
-0.87605298 -1.1684916 5.3447828 26112
-0.87602937 -1.193246 5.3447027 26112
-0.8760066 -1.2179992 5.3446236 26112
-0.875983 -1.2427521 5.3445435 26112
-0.87595963 -1.2675037 5.3444633 26112
-0.87600148 -1.2884878 5.3444309 222979
-0.87839532 -1.2890134 5.3458138 288772
-0.88459086 -1.2889807 5.3493958 222979
-0.8931005 -1.2887782 5.3543158 26112
-0.89903498 -1.2890154 5.3577461 419846
-0.90961957 -1.2889067 5.3638659 222979
-0.91648793 -1.289263 5.367836 26112
-0.92289925 -1.2888825 5.3715439 222979
-0.9394964 -1.2897403 5.3811369 222979
-0.94675791 -1.289149 5.3853369 222979
-0.95636725 -1.289194 5.3908925 354309
-0.9625628 -1.289103 5.3944745 354309
-0.9720968 -1.2888961 5.3999872 222979
-0.98012602 -1.2894982 5.4046278 485639
-0.98633742 -1.2890221 5.4082203 222979
-0.99709499 -1.2893378 5.4144382 222979
-1.0096134 -1.2892543 5.4216762 222979
-1.0206187 -1.2891097 5.4280396 288772
-1.0265547 -1.2896054 5.4314699 157442
-1.0342495 -1.2891685 5.4359198 222979
-1.0437745 -1.2893689 5.4414253 354309
-1.050166 -1.289374 5.4451208 288516
-1.0594815 -1.2893928 5.4505067 222979
-1.0670379 -1.28923 5.4548759 288772
-1.0669835 -1.2686496 5.4548998 26112
-1.0670401 -1.2438424 5.4549999 26112
-1.0670974 -1.2190351 5.4550991 26112
-1.0670941 -1.1937673 5.4551649 26112
-1.0673096 -1.1677341 5.4553595 26112
-1.0676364 -1.1441596 5.4556117 26112
-1.0676167 -1.1191087 5.4556675 26112
-1.0676442 -1.0934292 5.4557524 26112
-1.0676242 -1.0683749 5.4558086 26112
-1.0677437 -1.044009 5.4559431 26112
-1.0677241 -1.018953 5.4559994 26112
-1.0677174 -0.99357837 5.4560633 26112
-1.067778 -0.96886957 5.4561644 26112
-1.0678384 -0.94416082 5.4562664 26112
-1.0678314 -0.91878295 5.4563303 26112
-1.0678248 -0.89340335 5.4563942 26112
-1.0679208 -0.86902839 5.4565153 26112
-1.0679111 -0.84428859 5.4565768 26112
-1.0741144 -0.79382229 5.4602985 26112
-1.0798916 -0.76902527 5.4637051 26112
-1.079919 -0.74344641 5.4637899 26112
-1.0799146 -0.71869707 5.4638538 26112
-1.0800021 -0.69443971 5.4639692 26112
-1.0799986 -0.66926295 5.464035 26112
-1.0800269 -0.64368069 5.4641194 26112
-1.0800544 -0.61809742 5.4642048 26112
-1.0800805 -0.5937925 5.4642849 26112
-1.080107 -0.56948686 5.464365 26112
-1.0801345 -0.54390091 5.4644499 26112
-1.0801623 -0.51831406 5.4645348 26112
-1.0801883 -0.49400556 5.4646158 26112
-1.0799232 -0.46889219 5.464529 26112
-1.0798029 -0.44417664 5.4645271 26112
-1.079831 -0.41858199 5.4646111 26112
-1.0798242 -0.39328632 5.4646759 26112
-1.0799201 -0.3690109 5.4647961 26112
-1.079911 -0.34435225 5.4648571 26112
-1.0799387 -0.31875408 5.464942 26112
-1.0799663 -0.2931549 5.4650269 26112
-1.0799928 -0.26883483 5.465107 26112
-1.080019 -0.24451393 5.4651875 26112
-1.0800465 -0.21891205 5.4652724 26112
-1.0800742 -0.19330928 5.4653568 26112
-1.0801001 -0.16898577 5.4654379 26112
-1.0801263 -0.14466144 5.4655185 26112
-1.0801543 -0.11905599 5.4656029 26112
-1.0801818 -0.093449585 5.4656878 26112
-1.0802085 -0.069122665 5.4657688 26112
-1.0802344 -0.044794895 5.4658489 26112
-1.0802619 -0.019185808 5.4659338 26112
-1.0802898 0.0064241989 5.4660177 26112
-1.0803173 0.032035127 5.4661026 26112
-1.0803435 0.056366358 5.4661837 26112
-1.0803699 0.080698445 5.4662647 26112
-1.0755296 0.080878183 5.4634666 26112
-1.0693456 0.081107847 5.4598913 26112
-1.0600123 0.081454478 5.4544964 26112
2.4793758 -1.2838815 3.4045422 288772
2.46661 -1.2841129 3.4119225 813836
2.4528575 -1.2838355 3.4198744 288516
2.4328616 -1.2839952 3.4314342 288516
2.4209797 -1.2837663 3.4383042 288516
2.4032202 -1.2839122 3.4485717 288772
2.3855948 -1.2839314 3.4587615 288516
2.3733714 -1.2840391 3.4658284 419846
2.353368 -1.2840303 3.4773932 288516
2.3401854 -1.2836528 3.4850161 26112
2.3277552 -1.2840923 3.4922006 288772
2.3056598 -1.2841276 3.5049748 354309
2.2931728 -1.2838646 3.5121953 26112
2.2786601 -1.2841183 3.5205851 288772
2.2591887 -1.2842072 3.5318422 288516
2.2464693 -1.2840801 3.539196 157442
2.227572 -1.2840776 3.5501215 157442
2.2116902 -1.2836233 3.5593052 26112
2.1996357 -1.2842187 3.5662727 222979
2.1781418 -1.2841899 3.5786991 157442
2.1522148 -1.2840661 3.5936894 157442
2.1328683 -1.2841282 3.6048741 222979
2.1206894 -1.2844042 3.6119146 354309
2.1207585 -1.2633764 3.6119308 26112
2.1207433 -1.2382038 3.6120074 26112
2.1207721 -1.213305 3.6120579 26112
2.1208012 -1.1884062 3.612108 26112
2.1331859 -1.137885 3.6050839 26112
2.1331191 -1.1129479 3.6051888 26112
2.1331484 -1.0882096 3.6052387 26112
2.1331136 -1.0632731 3.6053252 26112
2.133208 -1.0383388 3.6053381 26112
2.1332052 -1.0134004 3.6054068 26112
2.1332667 -0.98826712 3.6054382 26112
2.1332963 -0.96333027 3.6054885 26112
2.1333587 -0.93839133 3.6055198 26112
2.1334202 -0.91325682 3.6055515 26112
2.133482 -0.8881219 3.6055834 26112
2.1334152 -0.86317825 3.6056888 26112
2.1333487 -0.83823609 3.6057942 26112
2.1334751 -0.81329286 3.6057885 26112
2.1335044 -0.78854579 3.6058381 26112
2.1334693 -0.76359713 3.6059248 26112
2.1335258 -0.7398321 3.6059563 157186
2.1600907 -0.72505063 3.5906374 2647592
2.1671891 -0.72415149 3.5865364 1664537
2.2540731 -0.61355084 3.5366015 26112
2.2541058 -0.58797282 3.5366516 26112
2.2541382 -0.56239378 3.5367017 26112
2.2541692 -0.53816015 3.5367486 26112
2.2542 -0.51392573 3.5367956 26112
2.2544127 -0.48722729 3.5367444 26112
2.2552476 -0.46268079 3.5363278 26112
2.2552781 -0.43844792 3.536375 26112
2.2552586 -0.41350934 3.5364537 26112
2.2553942 -0.38799199 3.5364437 26112
2.2553744 -0.36305165 3.5365219 26112
2.2554054 -0.33881536 3.5365694 26112
2.2554381 -0.31323177 3.5366189 26112
2.2554708 -0.28764716 3.5366693 26112
2.2555015 -0.26340839 3.5367162 26112
2.2555323 -0.23916866 3.5367637 26112
2.2555652 -0.21358144 3.5368133 26112
2.2555981 -0.18799323 3.5368636 26112
2.2556291 -0.16375098 3.5369101 26112
2.2556617 -0.13816094 3.5369606 26112
2.2556942 -0.11257003 3.5370102 26112
2.2557254 -0.088325128 3.5370574 26112
2.2557564 -0.064079396 3.5371046 26112
2.255789 -0.038485762 3.5371547 26112
2.2558219 -0.012891201 3.5372043 26112
2.2563891 0.012580031 3.5369444 26112
2.2558851 0.036953539 3.5373018 812556
2.2559171 0.062550843 3.5373521 812556
2.2559478 0.08680179 3.5373988 812556
2.2628148 0.086694844 3.5334289 26112
2.2774639 0.086466625 3.5249586 26112
2.2959256 0.086179085 3.5142844 26112
2.3084843 0.08598344 3.5070233 26112
2.3267317 0.087029569 3.4964764 26112
2.3420186 0.086787783 3.4876378 26112
2.3553119 0.086577542 3.4799516 26112
2.376935 0.086335026 3.4674497 26112
2.3892276 0.087356478 3.4603455 26112
2.4022925 0.087146699 3.4527915 26112
2.4236403 0.086803928 3.4404483 26112
2.4365556 0.086596556 3.432981 26112
2.4533374 0.086726457 3.423279 26112
2.4703853 0.087349318 3.4134245 26112
2.4821694 0.087157302 3.4066112 26112
2.5019917 0.086834289 3.3951495 26112
2.5163314 0.086600587 3.3868585 26112
2.5288012 0.086397387 3.3796487 26112
2.5509353 0.086036682 3.3668509 26112
2.5508986 0.061781529 3.366807 26112
2.5508628 0.037527245 3.3667629 26112
2.5501323 0.012166043 3.3671167 26112
2.5499055 -0.013533821 3.3671792 26112
2.5499496 -0.038968809 3.3670855 26112
2.5507147 -0.063310593 3.3665776 26112
2.5506794 -0.087560534 3.3665328 26112
2.5506408 -0.11308593 3.3664863 26112
2.5506029 -0.13861042 3.3664398 26112
2.5507634 -0.1638054 3.3662794 26112
2.5503221 -0.18801188 3.3664699 26112
2.5504928 -0.21262601 3.3663049 26112
2.5504549 -0.23814692 3.3662579 26112
2.5504169 -0.26366678 3.3662114 26112
2.550632 -0.28862473 3.3660197 26112
2.5502434 -0.31307173 3.366179 26112
2.5501599 -0.33789086 3.3661606 26112
2.5502687 -0.36318558 3.3660295 26112
2.5503125 -0.3885895 3.365936 26112
2.5503607 -0.4135277 3.3658416 26112
2.5498531 -0.43793803 3.3660693 26112
2.5490959 -0.46301314 3.3664393 26112
2.5492027 -0.48828259 3.3663099 26112
2.549309 -0.51354891 3.3661809 26112
2.5492098 -0.53842121 3.3661711 26112
2.5490091 -0.56316227 3.3662207 26112
2.5489101 -0.5880357 3.3662109 26112
2.5490165 -0.6132971 3.3660815 26112
2.5491695 -0.63842946 3.3659256 26112
2.5489779 -0.66329658 3.3659694 26112
2.5488687 -0.68829381 3.3659651 26112
2.5487599 -0.71329099 3.3659616 26112
2.5488312 -0.73828936 3.3658533 26112
2.5489016 -0.76328522 3.3657453 26112
2.5487926 -0.78827924 3.365741 26112
2.5014763 -0.88810122 3.3928289 26112
2.5014238 -0.913239 3.3927913 26112
2.501488 -0.93837363 3.3926871 26112
2.5013366 -0.96330124 3.3927073 26112
2.5012877 -0.9882316 3.3926692 26112
2.5013354 -1.0132674 3.3925738 26112
2.5012851 -1.0382946 3.3925354 26112
2.5011351 -1.0632211 3.3925555 26112
2.5011983 -1.0883483 3.392451 26112
2.5015275 -1.1132838 3.3921943 26112
2.5020399 -1.1384259 3.3918302 26112
2.5018806 -1.1632788 3.391856 26112
2.5016754 -1.1879988 3.3919077 26112
2.5010388 -1.2132123 3.3922079 26112
2.5009353 -1.238223 3.3922005 26112
2.500865 -1.2633517 3.3921742 26112
2.5010059 -1.2839254 3.3920369 288516
