# .PCD v0.7 - Point Cloud Data file format
VERSION 0.7
FIELDS x y z rgb
SIZE 4 4 4 4
TYPE F F F U
COUNT 1 1 1 1
WIDTH 295
HEIGHT 1
VIEWPOINT 0 0 0 1 0 0 0
POINTS 295
DATA ascii
1.7854646 -0.96116507 3.8060868 45056
1.7860041 -0.94396663 3.8058295 45056
1.7980294 -0.94096082 3.7988839 43264
1.8299506 -0.92239082 3.7804797 102913
1.8291943 -0.93690872 3.7808709 42496
1.8291594 -0.96184599 3.7808111 42496
1.8291248 -0.98678356 3.7807508 42496
1.8290899 -1.011721 3.7806914 42496
1.829056 -1.0366584 3.7806315 42496
1.829021 -1.0615959 3.7805722 42496
1.8289868 -1.0865332 3.7805119 42496
1.8289518 -1.1114708 3.780452 42496
1.8289177 -1.1364083 3.7803922 42496
1.8288829 -1.1613457 3.7803326 42496
1.8289758 -1.1868459 3.7801974 42240
1.8286791 -1.2117659 3.7802889 42496
1.8289065 -1.2367172 3.7800777 42240
1.8286099 -1.2616447 3.7801692 42496
1.8287134 -1.2838163 3.7800391 501255
1.8182713 -1.2840368 3.786078 502023
1.8076644 -1.2839913 3.7922132 502535
1.7972147 -1.2838035 3.7982581 175618
1.7849804 -1.2837322 3.8053348 241667
1.784891 -1.2615606 3.8054566 45056
1.7849785 -1.2364266 3.8054864 45056
1.7850672 -1.2112948 3.8055155 45056
1.784995 -1.1865636 3.8056371 45056
1.7850825 -1.1614317 3.8056664 45056
1.7851716 -1.1363021 3.8056955 45056
1.7850993 -1.1115668 3.8058164 45056
1.7853469 -1.0868703 3.8057523 45056
1.7851187 -1.0617287 3.8059647 45056
1.7853605 -1.0361555 3.8059068 45056
1.7852917 -1.0114448 3.806026 45056
1.7852225 -0.98672968 3.8061447 45056
1.2303333 0.037645433 4.1303773 1644825
1.230312 0.011977864 4.1303072 1644825
1.2302926 -0.011977745 4.1302419 1644825
1.2302712 -0.037643623 4.1301718 1644825
1.2302506 -0.063308671 4.1301017 1644825
1.230231 -0.0872619 4.1300364 1644825
1.2302098 -0.11292524 4.1299663 1381653
1.2301888 -0.13858777 4.1298966 1118481
1.2301694 -0.16253866 4.1298318 1118481
1.2301494 -0.18648878 4.1297655 1118481
1.2301286 -0.21214879 4.1296954 1118481
1.2301078 -0.23780788 4.1296258 1118481
1.2300884 -0.26175568 4.1295605 1118481
1.2300671 -0.28741312 4.1294904 1118481
1.2300465 -0.31306976 4.1294203 1118481
1.2300267 -0.33701515 4.129355 1118481
1.2300059 -0.36267006 4.1292858 1118481
1.2299852 -0.38832414 4.1292157 1118481
1.2299653 -0.41226712 4.1291504 1118481
1.2300718 -0.4373911 4.1290083 1184274
1.3120605 -0.54866308 4.0812283 1381653
1.3248748 -0.54851156 4.0738173 2171169
1.3277148 -0.54829043 4.072175 2171169
1.3559856 -0.54944867 4.0558195 2434341
1.39519 -0.5497179 4.0331421 2171169
1.404923 -0.54895091 4.0275159 2500134
1.413245 -0.54829508 4.0227036 3684408
1.4408336 -0.54943925 4.0067425 657930
1.4504429 -0.54867738 4.0011868 657930
1.462749 -0.5477016 3.994072 657930
1.4851613 -0.54746312 3.9811094 657930
1.4854094 -0.56207788 3.9809189 657930
1.4856987 -0.58730191 3.9806712 657930
1.4861283 -0.61277366 3.980341 657930
1.4854836 -0.63744813 3.9806345 657930
1.450285 -0.71270645 4.0007529 657930
1.4502611 -0.73755622 4.0006876 657930
1.4502373 -0.76240528 4.0006218 657930
1.4502136 -0.78725344 4.000556 657930
1.4501896 -0.81210089 4.0004907 657930
1.4501656 -0.83694738 4.0004249 657930
1.4501449 -0.85848045 4.0003676 1579032
1.4364098 -0.8585248 4.0083122 789516
1.4159433 -0.85805196 4.0201516 789516
1.4032457 -0.8592962 4.027492 986895
1.3867172 -0.8585723 4.0370545 855309
1.3697581 -0.85839975 4.046865 986895
1.3571137 -0.85827208 4.0541782 723723
1.3374592 -0.85837746 4.065547 921102
1.3231808 -0.85905147 4.0738034 921102
1.3104453 -0.85844368 4.081171 921102
1.2888051 -0.85877621 4.0936871 986895
1.2759809 -0.85801345 4.1011076 657930
1.2628146 -0.85894126 4.1087198 986895
1.2427031 -0.85862643 4.1203537 723723
1.2296003 -0.859065 4.1279311 986895
1.2117891 -0.8586998 4.1382346 921102
1.1946273 -0.85803908 4.1481633 657930
1.1829499 -0.85867923 4.1549153 855309
1.1635197 -0.85848832 4.1661544 855309
1.1499449 -0.85943174 4.1740031 1184274
1.1365997 -0.85865432 4.181725 921102
1.1153257 -0.8591826 4.1940284 1052688
1.1034086 -0.85801375 4.2009249 657930
1.0882609 -0.85892963 4.2096834 855309
1.0684885 -0.85864151 4.2211213 723723
1.0547341 -0.85938293 4.2290745 1184274
1.036309 -0.85891503 4.2397337 855309
1.0208938 -0.85896081 4.2486491 1184274
1.0085063 -0.85864699 4.255815 723723
0.98684442 -0.85875833 4.2683444 921102
0.98674423 -0.83732605 4.2684712 657930
0.98689777 -0.81236577 4.2684622 657930
0.98696876 -0.78718191 4.2685013 657930
0.98763442 -0.76253039 4.2681961 657930
0.98837161 -0.73730624 4.2678499 657930
0.98838758 -0.71256435 4.26792 657930
0.98840415 -0.68782121 4.2679901 657930
0.98842019 -0.66307753 4.2680597 657930
0.98843688 -0.63833296 4.2681289 657930
0.98826587 -0.61332017 4.2683082 657930
0.98834491 -0.5880729 4.268343 657930
0.98842454 -0.56282544 4.2683778 657930
0.98850346 -0.53757793 4.2684135 657930
0.98870319 -0.51208901 4.2683792 657930
0.98872352 -0.48658347 4.2684488 657930
0.98855329 -0.46156311 4.2686276 657930
0.98856926 -0.43681195 4.2686973 657930
0.98858559 -0.41206014 4.2687669 657930
0.98860264 -0.38730735 4.268837 657930
0.98861843 -0.36255383 4.2689071 657930
0.98863441 -0.33779967 4.2689762 657930
0.98865056 -0.31304455 4.2690463 657930
1.0228622 -0.23766938 4.2494993 657930
1.0228791 -0.21302566 4.2495685 657930
1.0228958 -0.18838109 4.2496376 657930
1.0229129 -0.16373576 4.2497067 657930
1.0229307 -0.13732915 4.2497807 657930
1.0229485 -0.11092163 4.249855 657930
1.0229653 -0.086273782 4.2499242 657930
1.0229795 -0.065146424 4.2499833 657930
1.0368932 -0.012302145 4.242105 657930
1.0369103 0.012302338 4.2421737 657930
1.0369273 0.036907613 4.2422423 657930
1.0369443 0.061513692 4.2423115 657930
1.0369607 0.086120561 4.2423806 657930
1.0584606 0.087620609 4.2299504 657930
1.0706902 0.087474056 4.2228756 657930
1.0870308 0.08780884 4.2134252 657930
1.1056151 0.088796742 4.2026792 657930
1.1176828 0.088649243 4.1956987 657930
1.1372058 0.088410623 4.1844053 657930
1.1506701 0.08824604 4.1766171 657930
1.1640714 0.088082254 4.1688657 657930
1.1863078 0.087810449 4.1560025 657930
1.1981157 0.087666102 4.1491718 657930
1.2128069 0.087486528 4.1406741 657930
1.2303741 0.087271817 4.1305127 1644825
1.2303543 0.063313849 4.1304474 1644825
-0.57471579 0.058559582 5.1745033 657930
-0.5747245 0.083176032 5.1745868 657930
-0.58551753 0.084161654 5.1808329 657930
-0.59219444 0.084420145 5.1846952 657930
-0.609496 0.085652567 5.1947069 657930
-0.61547649 0.085473649 5.1981649 657930
-0.62440568 0.085206524 5.2033296 657930
-0.63255972 0.084962599 5.208045 657930
-0.6384626 0.084786028 5.2114587 657930
-0.64947921 0.084456414 5.2178297 657930
-0.66188711 0.084085211 5.2250051 657930
-0.67276472 0.083759815 5.2312961 657930
-0.67926174 0.083565474 5.2350531 657930
-0.68285966 0.083457835 5.237134 1579032
-0.68284959 0.059564821 5.2370515 1579032
-0.68283826 0.033965979 5.2369633 1579032
-0.68282789 0.0083679864 5.2368751 1579032
-0.6828174 -0.015522704 5.2367935 1579032
-0.68280697 -0.041119032 5.2367048 1579032
-0.68279624 -0.066714525 5.2366166 1579032
-0.68278611 -0.090602875 5.2365341 1579032
-0.68277508 -0.1161967 5.2364464 1381653
-0.68276435 -0.14178972 5.2363582 657930
-0.68275434 -0.16567573 5.2362757 657930
-0.68274325 -0.19126704 5.2361875 657930
-0.68273246 -0.21685755 5.2360992 657930
-0.68272245 -0.24074124 5.2360172 657930
-0.68271184 -0.26633006 5.235929 657930
-0.68270063 -0.2919181 5.2358408 657930
-0.68269068 -0.31579944 5.2357588 657930
-0.68268007 -0.34138572 5.2356701 657930
-0.68266934 -0.36697125 5.2355824 657930
-0.68265873 -0.39085028 5.2354999 657930
-0.68264818 -0.41643402 5.2354116 657930
-0.6826371 -0.44201705 5.2353239 657930
-0.77547038 -0.55166966 5.2886682 2171169
-0.78924638 -0.55194134 5.2966356 657930
-0.79994762 -0.55175132 5.3028259 657930
-0.80607313 -0.55102032 5.3063707 657930
-0.80606472 -0.56748295 5.306314 657930
-0.80605257 -0.59217608 5.3062277 657930
-0.80604327 -0.61028403 5.3061643 657930
-0.79913884 -0.6416477 5.3020697 657930
-0.78240305 -0.69219607 5.2922282 657930
-0.78239053 -0.71705431 5.2921419 657930
-0.78237897 -0.74191183 5.2920551 657930
-0.78236693 -0.76676846 5.2919688 657930
-0.78235447 -0.79162431 5.2918825 657930
-0.78234255 -0.81647938 5.2917957 657930
-0.78233039 -0.84133357 5.2917094 657930
-0.78238147 -0.86210513 5.2916722 1118481
-0.77471483 -0.86283505 5.2872357 986895
-0.75829136 -0.86329418 5.2777343 1250067
-0.7487334 -0.86263162 5.2722082 855309
-0.73484039 -0.86259949 5.2641726 789516
-0.72446603 -0.86195087 5.2581739 789516
-0.71243834 -0.86213583 5.2512164 855309
-0.70172751 -0.86229277 5.2450204 986895
-0.68676096 -0.86214769 5.2363644 855309
-0.67814296 -0.86246914 5.2313786 657930
-0.67237222 -0.86211354 5.2280416 1052688
-0.66213095 -0.86220145 5.2221179 986895
-0.64824295 -0.86235088 5.2140841 1052688
-0.63145047 -0.86305374 5.2043695 1184274
-0.61434549 -0.86208719 5.194479 1184274
-0.59936678 -0.86198193 5.1858149 1052688
-0.59109354 -0.8619203 5.1810303 657930
-0.58497924 -0.86224186 5.1774921 1250067
-0.57425654 -0.86203325 5.1712909 986895
-0.56138015 -0.86167383 5.1638441 789516
-0.55059856 -0.86117542 5.1576095 789516
-0.55069554 -0.83968467 5.1577349 657930
-0.55061448 -0.81462914 5.1577673 657930
-0.55062282 -0.78988165 5.1578517 657930
-0.55063081 -0.76513308 5.1579361 657930
-0.55063951 -0.74038392 5.15802 657930
-0.55064791 -0.71563399 5.1581039 657930
-0.55065614 -0.69088322 5.1581879 657930
-0.55066448 -0.66613173 5.1582718 657930
-0.55058306 -0.64106506 5.1583052 657930
-0.55062759 -0.61572945 5.158412 657930
-0.55067223 -0.59039354 5.1585188 657930
-0.5507164 -0.56505775 5.1586251 657930
-0.55076092 -0.53972167 5.1587324 657930
-0.55080581 -0.51438552 5.1588392 657930
-0.55072403 -0.48931155 5.1588726 657930
-0.55073267 -0.46455351 5.1589565 657930
-0.5507409 -0.43979463 5.1590405 657930
-0.55074972 -0.41503501 5.1591249 657930
-0.55075759 -0.39027449 5.1592088 657930
-0.55076653 -0.36551332 5.1592932 657930
-0.55077434 -0.3407512 5.1593771 657930
-0.55078256 -0.3159883 5.1594615 657930
-0.56157732 -0.29044449 5.1657863 657930
-0.57537258 -0.24024664 5.1739264 657930
-0.5753814 -0.21564488 5.1740098 657930
-0.57538968 -0.19104238 5.1740932 657930
-0.57539886 -0.16643895 5.1741776 657930
-0.57476676 -0.14206597 5.1738906 657930
-0.57465422 -0.11549139 5.1739101 657930
-0.57466412 -0.089122586 5.1740003 657930
-0.57467258 -0.064510852 5.1740837 657930
-0.57468104 -0.039898351 5.1741676 657930
-0.57469004 -0.015285045 5.1742516 657930
-0.57469803 0.0093290433 5.1743355 657930
-0.57470697 0.033943918 5.1744194 657930
-1.1702466 -1.0919218 5.5152822 225027
-1.1702811 -1.1168553 5.5152221 225027
-1.170315 -1.1417887 5.515162 225027
-1.1703494 -1.1667221 5.5151019 225027
-1.1702613 -1.1922219 5.5149693 225027
-1.170547 -1.2171304 5.5150547 225027
-1.1703298 -1.2420851 5.5148497 225027
-1.1706107 -1.2675554 5.5149302 225027
-1.1705185 -1.2897273 5.5148058 684554
-1.1805288 -1.2890817 5.5205984 422662
-1.1921074 -1.2895172 5.5272942 554760
-1.2036999 -1.2890524 5.5340004 424198
-1.2199197 -1.2901099 5.5433793 1146897
-1.2198894 -1.2678863 5.5434322 228355
-1.2198542 -1.2422434 5.5434942 228355
-1.2198191 -1.2166007 5.5435562 228355
-1.219786 -1.1926674 5.5436134 228355
-1.2197509 -1.1670247 5.5436754 228355
-1.2197158 -1.1413819 5.5437369 228355
-1.2196829 -1.1174483 5.5437946 228355
-1.2196474 -1.0918057 5.5438566 228355
-1.2196128 -1.0661628 5.5439186 228355
-1.2195799 -1.0422297 5.5439758 228355
-1.2195449 -1.0165868 5.5440373 228355
-1.2195096 -0.99094397 5.5440993 228355
-1.2194765 -0.96701068 5.544157 228355
-1.2194536 -0.94991541 5.544198 225795
-1.2132261 -0.94789308 5.5406027 224515
-1.1693157 -0.9278211 5.5152683 224771
-1.1700418 -0.94232088 5.5156422 225027
-1.1700761 -0.96725422 5.5155821 225027
-1.17011 -0.99218786 5.515522 225027
-1.1701446 -1.0171213 5.5154619 225027
-1.1701784 -1.0420548 5.5154018 225027
-1.170213 -1.0669883 5.5153422 225027
