# .PCD v0.7 - Point Cloud Data file format
VERSION 0.7
FIELDS x y z rgb
SIZE 4 4 4 4
TYPE F F F U
COUNT 1 1 1 1
WIDTH 690
HEIGHT 1
VIEWPOINT 0 0 0 1 0 0 0
POINTS 690
DATA ascii
2.3053069 0.10366763 3.1278849 1272851
2.2870183 0.10299119 3.1384616 1141521
2.271481 0.10301211 3.1474495 1666585
2.25892 0.10293499 3.1539917 1272851
2.2374191 0.10329617 3.1629202 1797915
2.2119553 0.10282084 3.1818821 26112
2.1902483 0.10322663 3.1944404 354053
2.1769569 0.10347513 3.2021296 1272851
2.1616721 0.10376088 3.2109728 1535511
2.1406405 0.10336749 3.2221351 2388516
2.1308677 0.10166117 3.2287848 26112
2.1124086 0.10199741 3.2394638 26112
2.0977612 0.1022642 3.2479379 26112
2.0908957 0.10238928 3.2519095 812556
2.0718286 0.10552835 3.2243309 8752517
2.0224853 0.1057594 3.1516035 8421504
1.9880886 0.10598031 3.0820858 10000536
1.9414333 0.10619164 3.0155675 9868950
1.8967491 0.10639405 2.9518597 9605778
1.8646933 0.10658813 2.890789 10000536
1.8210293 0.10677427 2.8321927 9737364
1.7906013 0.10695306 2.7759261 10000536
1.7478267 0.10712487 2.7218504 9276813
1.718854 0.10729012 2.669842 9868950
1.6898825 0.10744917 2.6197841 10000536
1.6619772 0.10760236 2.5715687 10000536
1.6225268 0.10775 2.5250947 9605778
1.5957804 0.10789243 2.4802718 9803157
1.5689573 0.10802988 2.4370124 9868950
1.5430539 0.1081626 2.3952358 9934743
1.5180235 0.10829088 2.3548679 9934743
1.4928635 0.1084149 2.3158376 9934743
1.4675798 0.10853485 2.27808 9934743
1.4440364 0.10865098 2.2415342 9934743
1.4203223 0.10876342 2.2061422 9868950
1.3964455 0.10887237 2.1718502 9737364
1.3732998 0.10897798 2.1386085 9276813
1.3630694 0.10908044 2.106369 10066329
1.340247 0.10917982 2.0750866 10000536
1.3180925 0.10927629 2.0447202 9934743
1.2965772 0.10936999 2.0152295 9803157
1.2748507 0.10946104 1.9865775 8421504
1.2444037 0.10963557 1.9316502 9934743
1.2234879 0.10971924 1.9053098 9276813
1.1948487 0.10987997 1.8547275 10066329
1.1722682 0.10643175 1.8306643 7631988
1.1417984 0.10550937 1.8046813 6908265
1.1119201 0.10563453 1.7888901 7171437
1.0866849 0.10567014 1.7829633 6908265
1.0622777 0.10549001 1.7806264 6842472
1.0375825 0.10556106 1.7823936 6908265
1.0118977 0.10536887 1.7881818 6974058
0.98086739 0.10533361 1.8032062 6842472
0.96326804 0.10542606 1.8153857 6974058
0.95149261 0.10521685 1.8271238 6908265
0.92930591 0.10519409 1.857875 6842472
0.91625106 0.1055797 1.886003 7105644
0.91121608 0.10537966 1.911211 7105644
0.90991956 0.10556126 1.934804 7237230
0.91182876 0.1060647 1.9582111 7697781
0.930053 0.10936889 2.0152092 10066329
0.95681792 0.10917868 2.0750651 10066329
0.9764778 0.10907929 2.1063468 9671571
0.98344928 0.10897683 2.1385856 10132122
1.0041343 0.10887119 2.1718268 10066329
1.0117626 0.10876219 2.2061174 10132122
1.0326369 0.10864975 2.2415087 10132122
1.0532479 0.10853361 2.278054 10066329
1.0620694 0.10841361 2.31581 10132122
1.0838715 0.10828958 2.3548393 10132122
1.1054286 0.10816132 2.3952072 10066329
1.1277375 0.10802857 2.4369829 10000536
1.1374803 0.10789108 2.4802403 10132122
1.1611745 0.10774864 2.525063 10132122
1.1836104 0.10760096 2.5715349 10132122
1.2079732 0.10744774 2.6197491 10066329
1.2321607 0.10728868 2.6698065 10066329
1.2561629 0.10712341 2.7218139 10066329
1.281119 0.10695157 2.7758875 10066329
1.3070865 0.10677277 2.8321531 10066329
1.3329308 0.10658656 2.8907466 10066329
1.3598673 0.10639249 2.9518161 10132122
1.3867168 0.10619003 3.0155215 10132122
1.42752 0.10597868 3.0820384 9934743
1.4558012 0.10575776 3.1515546 10066329
1.4853877 0.10552664 3.2242789 10132122
1.5286782 0.10528464 3.3004403 9934743
1.5586584 0.10503088 3.380285 10066329
1.6030415 0.10476458 3.4640903 10000536
1.6364365 0.1044847 3.5521555 10132122
1.6836541 0.10419025 3.6448159 10066329
1.7302999 0.10388001 3.7424397 10066329
1.7651256 0.10289985 3.821193 3355443
1.7538643 0.1030753 3.8277082 3026478
1.7369292 0.10184253 3.8375006 3026478
1.7084233 0.10058961 3.8539867 657930
1.6880236 0.10089763 3.865788 657930
1.6739377 0.10111032 3.8739371 657930
1.6610669 0.10130468 3.8813832 657930
1.6390851 0.10163659 3.8941004 657930
1.6273938 0.10181312 3.9008639 657930
1.6130345 0.10202994 3.9091713 1315860
1.5933723 0.10232683 3.9205461 3026478
1.585475 0.10244607 3.9251149 3026478
1.5628401 0.1035521 3.8454144 10197915
1.5178797 0.10387941 3.7424178 10197915
1.4722449 0.10418964 3.6447945 10197915
1.4421754 0.10448413 3.5521364 10197915
1.399245 0.10476398 3.4640708 10197915
1.3695955 0.10503034 3.3802676 10197915
1.3413467 0.10528409 3.3004231 10197915
1.3130658 0.10552614 3.2242639 10197915
1.2730037 0.10575723 3.1515386 10197915
1.246201 0.10597816 3.0820231 10197915
1.2205552 0.10618955 3.0155077 10197915
1.1945404 0.10544465 2.9547005 9079434
1.1801798 0.10352427 2.9398205 6974058
1.1706871 0.10311753 2.9282701 6974058
1.1590543 0.10273121 2.9172995 6710886
1.1423855 0.10315633 2.9045331 6710886
1.1125391 0.10423316 2.889538 7303023
1.0868622 0.10390855 2.8829002 7039851
1.0621288 0.10382606 2.8806112 6974058
1.0377434 0.10389403 2.8824966 7039851
1.012816 0.10404828 2.8886783 7237230
0.9815039 0.10344311 2.9033585 6710886
0.96482331 0.10275754 2.9159093 6710886
0.95207757 0.10309134 2.9275267 6776679
0.94163054 0.10354415 2.9403851 7039851
0.92941427 0.10384576 2.9577014 7171437
0.9179914 0.10287319 2.9875062 6776679
0.9119541 0.10314582 3.0362349 6710886
0.91038227 0.10597719 3.0819943 10066329
0.93352735 0.10575623 3.151509 9934743
0.9577406 0.10552511 3.2242322 9803157
0.98173028 0.10528306 3.3003907 9737364
1.0054803 0.10502928 3.3802338 9737364
1.030408 0.10476293 3.4640357 9737364
1.0566031 0.10448303 3.5520988 9737364
1.0826547 0.10418852 3.6447556 9803157
1.1101018 0.10387824 3.7423756 9868950
1.1374667 0.10355088 3.8453693 9934743
1.179486 0.10320503 3.9541936 9276813
1.2087796 0.10283898 4.0693545 9803157
1.2303721 0.10096247 4.130528 1644825
1.2128056 0.10121086 4.1406903 1184274
1.1981149 0.10141861 4.1491895 3026478
1.1863073 0.10158558 4.1560202 3026478
1.1640708 0.10190002 4.1688843 3026478
1.1506701 0.10208952 4.1766372 5395026
1.1372063 0.1022799 4.1844263 5395026
1.1130651 0.10245062 4.1914105 5395026
1.0369637 0.10018197 4.2424073 657930
1.012243 0.1005197 4.2567081 657930
0.99047869 0.10081702 4.2693 1447446
0.9779858 0.1009877 4.2765274 3026478
0.96229881 0.101202 4.2856016 3026478
0.94339985 0.10146019 4.2965355 3026478
0.93074322 0.10163309 4.3038573 4210752
0.91166282 0.10189261 4.3148479 5395026
0.88611847 0.10203789 4.3209996 5395026
0.78037995 0.10004884 4.3908334 657930
0.77047014 0.10017947 4.3965669 657930
0.7572149 0.10035421 4.4042349 1118481
0.73724502 0.10061745 4.4157877 3026478
0.72388136 0.10079361 4.4235191 3026478
0.71045905 0.10097055 4.4312844 3026478
0.6885581 0.10125923 4.443954 5000268
0.6767168 0.10141532 4.4508042 5395026
0.66289693 0.10155855 4.4570894 5395026
0.63730174 0.10159881 4.4588571 5723991
0.6114397 0.10159874 4.4588537 7829367
0.59481418 0.10159869 4.4588518 7368816
0.57462949 0.10203701 4.3209624 9342606
0.56607455 0.10244908 4.1913471 10000536
0.54453087 0.10283711 4.0692806 9868950
0.53731191 0.10320321 3.9541235 10066329
0.51774561 0.10354912 3.8453038 10000536
0.49767691 0.10387649 3.7423127 9342606
0.49224508 0.10418683 3.6446965 10000536
0.47237346 0.10448136 3.5520418 9342606
0.46640307 0.1047613 3.4639821 10000536
0.44951847 0.10502768 3.3801823 9342606
0.44436997 0.10528149 3.3003421 10000536
0.43812329 0.1055236 3.2241859 10066329
0.42171338 0.10575476 3.1514652 9868950
0.41624209 0.10597574 3.0819528 10000536
0.41225615 0.10618718 3.0154405 10066329
0.39620981 0.10638966 2.9517381 9934743
0.39160565 0.1065838 2.8906715 10066329
0.38718817 0.10677008 2.8320813 10066329
0.37144616 0.1069489 2.7758179 9868950
0.36759344 0.10712079 2.7217472 10000536
0.36499405 0.10728614 2.6697426 10066329
0.34838298 0.10744522 2.6196876 9342606
0.3451674 0.10759848 2.5714757 9934743
0.34206811 0.10774622 2.5250058 10066329
0.33907878 0.1078887 2.480186 10066329
0.32407856 0.10802618 2.436929 9342606
0.32150012 0.10815898 2.3951554 9934743
0.31900859 0.10828732 2.35479 10066329
0.31564021 0.10841138 2.3157625 10066329
0.31332543 0.10853141 2.2780077 10066329
0.2990129 0.10864756 2.2414637 9737364
0.29611984 0.10876006 2.2060738 9934743
0.29421642 0.10886908 2.1717846 10066329
0.29148528 0.10897474 2.1385448 10066329
0.28970912 0.10907724 2.1063073 10066329
0.27275938 0.10927317 2.0446615 9737364
0.27133009 0.10936691 2.0151725 10000536
0.26911855 0.10945801 1.9865226 10066329
0.26696897 0.10954654 1.9586756 10066329
0.26567903 0.10963261 1.9315983 10066329
0.24996518 0.10979779 1.8796288 9342606
0.24818397 0.10987712 1.8546792 9868950
0.24644943 0.10995436 1.8303833 10000536
0.24475972 0.11002959 1.8067154 10066329
0.24311315 0.11010291 1.7836519 10066329
0.2415081 0.11017441 1.7611701 10066329
0.239943 0.11024407 1.7392477 10132122
0.23912807 0.11031207 1.7178645 10132122
0.22366461 0.11044309 1.6766368 9737364
0.2223855 0.11050638 1.6567578 9934743
0.2211362 0.1105681 1.6373435 10000536
0.21991584 0.11062838 1.6183791 10066329
0.21808773 0.11071872 1.58997 10066329
0.21641865 0.11080117 1.5640327 10132122
0.21472766 0.11088471 1.5377543 10132122
0.19841909 0.11105208 1.4851035 9737364
0.19654423 0.11114048 1.4573026 10000536
0.19506323 0.11120982 1.4354867 10066329
0.19382598 0.11128103 1.413087 10066329
0.19171201 0.11136968 1.3852049 10132122
0.19024135 0.11145498 1.3583785 10132122
0.17401731 0.11162201 1.3058306 9605778
0.17253464 0.11169402 1.2831808 10000536
0.17101151 0.11176679 1.26029 10066329
0.16952926 0.11183747 1.2380619 10066329
0.1677565 0.11192419 1.2107869 10132122
0.16602971 0.11200457 1.1854981 10132122
0.16433008 0.1120833 1.1607305 10132122
0.14867075 0.11224127 1.1110402 9803157
0.14712568 0.11231628 1.0874475 10000536
0.14540641 0.11239279 1.063374 10066329
0.14389564 0.11246781 1.0397847 10132122
0.14222722 0.11255258 1.0131341 10132122
0.14046685 0.11263108 0.98843116 10132122
0.12413257 0.11281208 0.93149233 9605778
0.12300296 0.11287353 0.91217023 10000536
0.12133661 0.11295346 0.8870101 10066329
0.11940971 0.11303913 0.86007327 10132122
0.11793199 0.11312025 0.83458149 10197915
0.099337302 0.10675439 0.77849531 6710886
0.092175178 0.10780167 0.76154166 7237230
0.070360102 0.10723352 0.73070568 6974058
0.04054483 0.10725293 0.70526141 6908265
0.012527593 0.10794472 0.69001752 7303023
-0.012346615 0.10752632 0.68384039 7039851
-0.037510067 0.10724524 0.68139076 6908265
-0.062593214 0.10747151 0.68284357 6974058
-0.087558508 0.10783155 0.68809581 7237230
-0.11867326 0.10712537 0.70320845 6842472
-0.14846782 0.10699056 0.72682732 6842472
-0.17088552 0.10735346 0.75728029 7039851
-0.18923889 0.11111253 0.78783989 9145227
-0.19489516 0.11319831 0.80972373 10197915
-0.19762498 0.11312698 0.83215404 10197915
-0.19972084 0.11306947 0.85023296 10197915
-0.21659708 0.11295217 0.88714975 10197915
-0.2195563 0.1128692 0.91318762 10197915
-0.22217168 0.11279609 0.93620068 10197915
-0.22428709 0.1127369 0.95481408 10197915
-0.2437453 0.11255394 1.0123256 10197915
-0.24672617 0.11247019 1.0386679 10197915
-0.24914248 0.11240925 1.057833 10197915
-0.26807249 0.11223114 1.1138253 10197915
-0.27089739 0.11215752 1.1369823 10197915
-0.27289456 0.11209983 1.1551281 10197915
-0.29180408 0.1119241 1.2103865 10197915
-0.29515243 0.11183805 1.2374417 10197915
-0.2977668 0.11177027 1.2587581 10197915
-0.31582829 0.11161525 1.3074944 10197915
-0.3187812 0.1115374 1.3319762 10197915
-0.32149947 0.11145806 1.3569256 10197915
-0.32388347 0.11138849 1.3788065 10197915
-0.34314001 0.11120829 1.4354668 10197915
-0.34559008 0.11114229 1.4562181 10197915
-0.34852958 0.11106312 1.4811153 10197915
-0.36787868 0.11088499 1.5371248 10197915
-0.37062755 0.11079949 1.5640091 10197915
-0.37285724 0.11074319 1.581714 10197915
-0.38953987 0.11062667 1.6183534 10197915
-0.39206961 0.11056636 1.6373177 10197915
-0.39397296 0.11050462 1.6567316 10197915
-0.39695072 0.1104306 1.680005 10197915
-0.4164708 0.11024227 1.7392195 10197915
-0.41880172 0.11017257 1.7611408 10197915
-0.42193097 0.11010109 1.7836225 10197915
-0.42439273 0.11002775 1.8066852 10197915
-0.4425742 0.1098752 1.8546467 10197915
-0.44541299 0.10979586 1.8795958 10197915
-0.44832921 0.10971437 1.9052252 10197915
-0.46738973 0.10954448 1.9586388 10197915
-0.47074279 0.10945594 1.9864849 10197915
-0.47335765 0.10936482 2.0151341 10197915
-0.49343422 0.10917446 2.074985 10197915
-0.49738201 0.10907499 2.1062641 10197915
-0.51296794 0.10897246 2.1385002 10197915
-0.51734203 0.10886677 2.1717386 10197915
-0.52094042 0.10875773 2.2060268 10197915
-0.53765428 0.10864516 2.2414143 10197915
-0.54170108 0.10852897 2.2779565 10197915
-0.54684144 0.10840891 2.3157098 10197915
-0.56386131 0.10828477 2.3547349 10197915
-0.56856549 0.10815643 2.3950992 10197915
-0.5734337 0.1080236 2.4368706 10197915
-0.59080434 0.10788599 2.480124 10197915
-0.59625006 0.10774343 2.524941 10197915
-0.61361486 0.10759564 2.5714078 10197915
-0.6196928 0.10744236 2.6196179 10197915
-0.63816899 0.10728317 2.6696692 10197915
-0.64383447 0.10711783 2.7216716 10197915
-0.66237438 0.10694587 2.775739 10197915
-0.66993332 0.10676696 2.8319991 10197915
-0.68858284 0.10658064 2.8905864 10197915
-0.69579202 0.10638648 2.9516497 10197915
-0.71580446 0.1061839 3.0153472 10197915
-0.72393209 0.10597242 3.0818563 10197915
-0.74417627 0.10575137 3.1513641 10197915
-0.76535475 0.10552011 3.2240796 10197915
-0.78753364 0.10527793 3.30023 10197915
-0.79678267 0.10502408 3.3800662 10197915
-0.81797034 0.10475761 3.4638598 10197915
-0.84170675 0.10447758 3.5519135 10197915
-0.86517143 0.10418296 3.6445606 10197915
-0.8883428 0.10387254 3.7421706 10197915
-0.91278946 0.10354505 3.8451526 10197915
-0.93861967 0.10319902 3.9539635 10197915
-0.96426862 0.10283285 4.0691113 10197915
-0.99145633 0.10244469 4.1911683 10197915
-1.0123425 0.10159074 4.3020639 3026478
-1.0201811 0.10148407 4.2975469 3026478
-1.0373631 0.10125025 4.2876449 3026478
-1.0544782 0.10101733 4.277782 3026478
-1.06687 0.10084869 4.2706404 1579032
-1.0869176 0.10057589 4.2590876 657930
-1.1007428 0.10038774 4.2511206 657930
-1.1129774 0.10022124 4.2440701 657930
-1.1267035 0.10003445 4.2361603 657930
-1.1876576 0.10244414 4.1911454 5395026
-1.2138866 0.10231391 4.1858172 5395026
-1.2287486 0.1021073 4.1773643 5395026
-1.2405643 0.10194086 4.1705556 3026478
-1.2626171 0.10163023 4.1578469 3026478
-1.287455 0.10128036 4.1435332 1842204
-1.309229 0.10097366 4.1309853 657930
-1.3222339 0.10079047 4.1234913 657930
-1.3294355 0.10068902 4.1193404 1579032
-1.309842 0.10283188 4.0690727 10263708
-1.2776904 0.10319807 3.9539266 10395294
-1.2345648 0.10354414 3.8451188 10197915
-1.2061512 0.10387164 3.7421379 10263708
-1.1777103 0.10418206 3.6445293 10395294
-1.137472 0.10447673 3.5518847 10197915
-1.1107087 0.10475677 3.4638321 10197915
-1.0852402 0.10502325 3.3800395 10197915
-1.0596076 0.10527714 3.3002057 10197915
-1.035158 0.10551933 3.224056 10197915
-1.0105056 0.10575058 3.151341 10197915
-0.98694092 0.10597166 3.0818338 10197915
-0.99125558 0.10254367 3.0557756 9079434
-0.98955745 0.1031056 3.0350513 8092539
-0.99603844 0.10302528 2.9885948 6842472
-1.0073351 0.10388914 2.958952 7237230
-1.0191187 0.10361904 2.942512 7039851
-1.0293792 0.10318119 2.9300783 6842472
-1.0421206 0.10276196 2.9181731 6710886
-1.0583463 0.10306586 2.9060104 6710886
-1.0879093 0.10413362 2.8910556 7237230
-1.1126705 0.10397704 2.8848 7237230
-1.1368486 0.10389273 2.8824611 6974058
-1.1614437 0.10395619 2.8842218 7237230
-1.1869965 0.10425398 2.8901174 7303023
-1.216326 0.10346566 2.9039917 6710886
-1.2336469 0.10270281 2.9164927 6710886
-1.2472693 0.10313015 2.9286287 6842472
-1.2573698 0.10356235 2.9409015 7105644
-1.2684985 0.10519776 2.9526308 8684676
-1.2966733 0.10618231 3.0153022 9737364
-1.3239963 0.10597078 3.0818083 9342606
-1.3643011 0.10574967 3.1513131 10066329
-1.3917742 0.10551838 3.2240267 10000536
-1.420545 0.10527619 3.3001754 9868950
-1.4633088 0.10502216 3.3800044 10066329
-1.4938444 0.10475566 3.4637954 10000536
-1.537704 0.10447558 3.5518456 10066329
-1.5702633 0.10418093 3.6444902 9934743
-1.6154184 0.10387047 3.7420959 10000536
-1.6630586 0.10354292 3.8450737 10066329
-1.6901572 0.10209034 3.9114852 1842204
-1.7044016 0.10187609 3.9032764 657930
-1.7172951 0.10168216 3.8958464 657930
-1.7378203 0.10137343 3.8840179 657930
-1.7518708 0.10116211 3.875921 657930
-1.7645794 0.10097096 3.8685973 657930
-1.7860867 0.10064746 3.8562028 657930
-1.813666 0.10182033 3.8401871 3026478
-1.8327808 0.1026646 3.8293021 3026478
-1.8460795 0.10291189 3.8216403 3026478
-1.8633667 0.10264362 3.8116779 2763306
-1.8793513 0.10239556 3.8024662 657930
-1.8915865 0.10220568 3.7954152 657930
-1.9037825 0.10201641 3.7883866 2236962
-1.8805083 0.1038698 3.7420712 10197915
-1.8299491 0.10418028 3.6444669 10197915
-1.7819607 0.10447498 3.551825 10197915
-1.7349163 0.10475508 3.4637759 10197915
-1.7013497 0.10502159 3.379986 10263708
-1.6556971 0.10527553 3.3001552 10197915
-1.6121513 0.10551778 3.2240083 10197915
-1.5810139 0.10574907 3.1512954 10197915
-1.5512499 0.10597015 3.0817902 10263708
-1.5077807 0.10618174 3.0152857 10197915
-1.4795983 0.10638434 2.9515903 10197915
-1.4513845 0.10657857 2.8905301 10197915
-1.4125824 0.10676496 2.8319459 10197915
-1.385671 0.10694391 2.7756882 10197915
-1.359808 0.10711588 2.7216225 10197915
-1.3338273 0.1072813 2.6696224 10197915
-1.3088207 0.1074405 2.6195726 10197915
-1.2836694 0.10759386 2.5713649 10197915
-1.2594268 0.10774167 2.5248992 10197915
-1.236045 0.10788422 2.4800835 10197915
-1.2124692 0.10802183 2.4368303 10197915
-1.2026005 0.10815466 2.3950596 10197915
-1.1794075 0.10828307 2.3546977 10197915
-1.1569831 0.10840721 2.3156736 10197915
-1.13529 0.1085273 2.2779217 10197915
-1.126364 0.10864352 2.2413805 10197915
-1.1049254 0.10875609 2.2059937 10197915
-1.0832535 0.10886518 2.1717069 10197915
-1.0631307 0.10897092 2.1384697 10197915
-1.0549582 0.10907344 2.1062336 10197915
-1.0341343 0.10917294 2.0749559 10197915
-1.0266252 0.1092695 2.0445929 10197915
-1.0011129 0.10464307 1.9888608 10263708
-0.99079323 0.10608017 1.9599005 9474192
-0.98896897 0.10566218 1.935041 8487297
-0.99069339 0.10547977 1.9108371 7566195
-1.0003152 0.10500982 1.8775595 6842472
-1.0075918 0.10525881 1.8619405 6908265
-1.0299263 0.10526768 1.8303396 6842472
-1.0594867 0.10540908 1.8057455 6842472
-1.0874461 0.10527123 1.7911173 6974058
-1.112205 0.10570312 1.7848312 6908265
-1.1365089 0.10560166 1.7825112 6908265
-1.1620089 0.10573296 1.7840691 6974058
-1.1876882 0.10555486 1.7893293 7171437
-1.2165885 0.10546155 1.8036091 6908265
-1.2456926 0.10513137 1.825639 6908265
-1.2723737 0.10987285 1.8546071 10197915
-1.2933825 0.10979345 1.8795547 10197915
-1.3235397 0.10962814 1.9315195 10197915
-1.345338 0.10954199 1.9585943 10197915
-1.366933 0.1094534 1.9864388 10197915
-1.389151 0.10936224 2.0150864 10197915
-1.4120191 0.10926843 2.0445728 10197915
-1.4226724 0.10917185 2.0749352 10197915
-1.4458629 0.10907233 2.1062124 10197915
-1.4688772 0.10896978 2.1384473 10197915
-1.4935063 0.10886401 2.171684 10197915
-1.5170857 0.10875493 2.2059703 10197915
-1.5423499 0.10864235 2.2413564 10197915
-1.5665506 0.1085261 2.2778964 10197915
-1.5925127 0.10840599 2.3156474 10197915
-1.6183746 0.10828184 2.3546712 10197915
-1.6441307 0.10815343 2.3950324 10197915
-1.6717944 0.10802054 2.4368017 10197915
-1.6983857 0.10788294 2.4800537 10197915
-1.7395356 0.10774034 2.524868 10197915
-1.767287 0.10759252 2.5713327 10197915
-1.7960787 0.10743915 2.6195397 10197915
-1.838136 0.1072799 2.6695881 10197915
-1.868302 0.10711448 2.7215865 10197915
-1.912315 0.10694246 2.775651 10197915
-1.944034 0.10676348 2.8319068 10197915
-1.9890399 0.10657709 2.8904901 10197915
-2.0224967 0.10638285 2.9515486 10197915
-2.0698891 0.10618019 3.0152421 10197915
-2.1168187 0.1059686 3.0817451 10197915
-2.1658647 0.10574747 3.1512482 10197915
-2.2159591 0.10163732 3.2280269 26112
-2.2358153 0.10340868 3.2165916 1666585
-2.2568645 0.10355049 3.2044623 1272851
-2.2700551 0.10330483 3.1968603 879117
-2.2878475 0.10297351 3.1866064 26112
-2.3036845 0.10267856 3.1774795 26112
-2.3375561 0.10307183 3.1559825 1535511
-2.3506358 0.10310951 3.1504257 1666585
-2.3633757 0.10286923 3.1430843 1272851
-2.3847041 0.10359465 3.1307952 1207314
-2.3976903 0.10351607 3.123312 26112
-2.4128888 0.10322578 3.1145532 26112
-2.4315641 0.10286908 3.1037903 26112
-2.4532225 0.10283884 3.0900381 550920
-2.387161 0.10617933 3.0152175 10197915
-2.3367355 0.10638198 2.9515247 10197915
-2.2871985 0.10657626 2.8904679 10197915
-2.2514012 0.10676264 2.8318844 10197915
-2.2043779 0.10694164 2.7756298 10197915
-2.1569312 0.10711367 2.7215664 10197915
-2.1112978 0.10727915 2.669569 10197915
-2.0793123 0.10743837 2.6195207 10197915
-2.034656 0.10759176 2.5713148 10197915
-2.0041656 0.1077396 2.5248508 10197915
-1.9614013 0.10788222 2.4800367 10197915
-1.931233 0.10801983 2.4367852 10197915
-1.9020987 0.10815272 2.3950167 10197915
-1.8612653 0.10828116 2.3546565 10197915
-1.8332971 0.10840532 2.3156331 10197915
-1.8062406 0.10852543 2.2778823 10197915
-1.7791237 0.10864169 2.2413425 10197915
-1.7519492 0.10875428 2.2059567 10197915
-1.7265189 0.10886336 2.1716707 10197915
-1.7000954 0.10896912 2.1384344 10197915
-1.6622531 0.10907172 2.1062007 10197915
-1.6375687 0.10917124 2.074924 10197915
-1.6254647 0.10926782 2.0445614 10197915
-1.6011879 0.10936164 2.0150754 10197915
-1.5776016 0.10945281 1.9864281 10197915
-1.5538651 0.1095414 1.9585836 10197915
-1.5307847 0.10962755 1.931509 10197915
-1.5075446 0.10971136 1.9051729 10197915
-1.4849296 0.10979293 1.8795453 10197915
-1.4528509 0.10994957 1.8303037 10197915
-1.431072 0.11002488 1.8066381 10197915
-1.4001046 0.11016978 1.7610964 10197915
-1.3790751 0.11023954 1.7391762 10197915
-1.3578507 0.11030757 1.7177948 10197915
-1.3352147 0.11039018 1.6918424 10197915
-1.3088653 0.110502 1.6566925 10197915
-1.3009894 0.11056376 1.6372793 10197915
-1.2812282 0.11062411 1.6183164 10197915
-1.2594128 0.11069808 1.5950638 10197915
-1.227703 0.11085209 1.546662 10197915
-1.201739 0.11095867 1.5131626 10197915
-1.1814625 0.11101975 1.4939765 10197915
-1.1567264 0.11111928 1.462697 10197915
-1.127829 0.11125244 1.4208406 10197915
-1.1036183 0.11134255 1.39252 10197915
-1.0803537 0.11142914 1.3653069 10197915
-1.0560862 0.11152306 1.335791 10197915
-1.0253311 0.11166973 1.2896943 10197915
-1.0035986 0.11174411 1.2663176 10197915
-0.98105389 0.11182506 1.2408856 10197915
-0.95843899 0.11190473 1.2158382 10197915
-0.92791253 0.11204798 1.1708187 10197915
-0.90385449 0.11214229 1.1411822 10197915
-0.88230062 0.11221504 1.1183296 10197915
-0.85137826 0.11236238 1.072008 10197915
-0.82845604 0.11244487 1.0460892 10197915
-0.80586106 0.11252615 1.0205483 10197915
-0.78151149 0.1126204 0.99094182 10197915
-0.75196832 0.11275595 0.94832063 10197915
-0.72896153 0.11284214 0.9212358 10197915
-0.70564669 0.11292735 0.89447576 10197915
-0.68170768 0.11302018 0.86527413 10197915
-0.65111423 0.11316338 0.82027465 10197915
-0.62845331 0.11324618 0.79425389 10197915
-0.60594368 0.11332611 0.76913947 10197915
-0.58245653 0.11341257 0.74194163 10197915
-0.55192584 0.1135579 0.69628769 10197915
-0.52900702 0.11364111 0.67014581 10197915
-0.50573176 0.11372744 0.6430043 10197915
-0.47556663 0.11386807 0.59880698 10197915
-0.45261493 0.11395289 0.57215017 10197915
-0.42922994 0.11403945 0.54492903 10197915
-0.40593463 0.11412583 0.51780438 10197915
-0.37607506 0.11426447 0.47422615 10197915
-0.35241932 0.11435357 0.44621989 10197915
-0.32928196 0.11443904 0.41932955 10197915
-0.31201553 0.11445937 0.41280085 10197915
-0.28750315 0.11446096 0.41235951 10197915
-0.26249272 0.11446072 0.41236815 10197915
-0.23749067 0.1144611 0.41234913 10197915
-0.21249713 0.11446189 0.41237333 10197915
-0.1874866 0.11446117 0.41236842 10197915
-0.16248448 0.11446045 0.41235498 10197915
-0.13750803 0.11446148 0.41236395 10197915
-0.11250575 0.11446203 0.41237438 10197915
-0.087495126 0.11446197 0.41235954 10197915
-0.062501453 0.11446209 0.4123624 10197915
-0.03749916 0.11446281 0.41236928 10197915
-0.012497072 0.11446255 0.41236749 10197915
0.012497095 0.1144626 0.4123677 10197915
0.037499249 0.11446294 0.41237149 10197915
0.06250158 0.11446332 0.41236418 10197915
0.087495439 0.11446189 0.41236529 10197915
0.11250652 0.11446317 0.41237539 10197915
0.13750899 0.11446302 0.4123691 10197915
0.16248582 0.11446375 0.41236004 10197915
0.18748829 0.11446387 0.41237411 10197915
0.21249944 0.11446346 0.41238025 10197915
0.23749368 0.11446375 0.41235605 10197915
0.26249623 0.11446302 0.41237903 10197915
0.28749874 0.11446353 0.41237107 10197915
0.31201208 0.11446211 0.41280678 10197915
0.32928756 0.11444114 0.41933697 10197915
0.35242572 0.11435568 0.44622818 10197915
0.37608236 0.11426668 0.47423536 10197915
0.40594313 0.11412814 0.51781607 10197915
0.42923963 0.11404198 0.54494065 10197915
0.45254621 0.11395601 0.57201374 10197915
0.47557831 0.11387086 0.5988217 10197915
0.50574476 0.11373039 0.64302039 10197915
0.52902138 0.11364417 0.67016399 10197915
0.55194169 0.11356113 0.69630748 10197915
0.58247405 0.11341606 0.74196404 10197915
0.60596269 0.11332958 0.76916367 10197915
0.6284737 0.11324982 0.79427958 10197915
0.6511361 0.11316719 0.82030219 10197915
0.68163306 0.11302441 0.86523736 10197915
0.70567244 0.1129314 0.89450788 10197915
0.72898901 0.11284639 0.92127049 10197915
0.75199747 0.11276033 0.94835752 10197915
0.77500254 0.11267625 0.974823 10197915
0.80589455 0.11253079 1.0205907 10197915
0.82849151 0.11244965 1.0461339 10197915
0.85141498 0.11236724 1.0720544 10197915
0.88234025 0.11222003 1.11838 10197915
0.90389615 0.11214747 1.1412349 10197915
0.92795664 0.11205331 1.1708745 10197915
0.95848596 0.11191025 1.215898 10197915
0.98080027 0.11183198 1.2405436 10197915
1.0036504 0.11174989 1.2663832 10197915
1.0253854 0.11167563 1.2897625 10197915
1.0561439 0.11152916 1.3358641 10197915
1.0799221 0.11143922 1.364182 10197915
1.1036813 0.11134893 1.3925998 10197915
1.127895 0.11125895 1.4209237 10197915
1.156796 0.11112595 1.4627848 10197915
1.1815352 0.11102656 1.4940681 10197915
1.2018143 0.11096563 1.5132575 10197915
1.2277815 0.11085919 1.546761 10197915
1.2594955 0.11070538 1.5951686 10197915
1.2813143 0.11063153 1.618425 10197915
1.3010781 0.1105713 1.637391 10197915
1.3089551 0.1105096 1.6568063 10197915
1.3353082 0.11039788 1.6919609 10197915
1.3579477 0.11031545 1.7179174 10197915
1.3791751 0.11024753 1.7393022 10197915
1.4002079 0.1101779 1.7612262 10197915
1.4311798 0.11003318 1.8067743 10197915
1.4529623 0.10995799 1.8304439 10197915
1.4850461 0.10980152 1.8796923 10197915
1.5076647 0.10972011 1.9053249 10197915
1.5309087 0.10963643 1.9316654 10197915
1.5539929 0.1095504 1.9587446 10197915
1.5777334 0.10946194 1.9865938 10197915
1.6013236 0.10937091 2.0152464 10197915
1.6256047 0.10927723 2.0447376 10197915
1.6377108 0.10918071 2.0751038 10197915
1.6623998 0.10908134 2.1063867 10197915
1.700249 0.10897896 2.1386275 10197915
1.7266774 0.10887335 2.17187 10197915
1.7521124 0.10876441 2.2061622 10197915
1.7792922 0.10865197 2.2415547 10197915
1.8064142 0.10853586 2.2781012 10197915
1.8334762 0.10841591 2.3158593 10197915
1.8614503 0.10829192 2.3548901 10197915
1.9022917 0.10816368 2.3952596 10197915
1.931432 0.10803096 2.4370365 10197915
1.9616069 0.10789351 2.4802971 10197915
2.0043805 0.10775113 2.5251212 10197915
2.0348778 0.10760348 2.5715947 10197915
2.0795436 0.10745033 2.619812 10197915
2.1115367 0.10729127 2.6698706 10197915
2.1571805 0.10712606 2.7218807 10197915
2.2034883 0.10695428 2.7759578 10197915
2.2516732 0.10677554 2.8322265 10197915
2.2874796 0.10658935 2.8908229 10197915
2.3370287 0.10639533 2.9518952 10197915
2.3874674 0.10619295 3.0156045 10197915
2.4278398 0.10258479 3.0570011 550920
2.4130371 0.10287217 3.0655644 879117
2.3990471 0.10314376 3.073658 1272851
2.3862278 0.10324513 3.0808036 1469718
2.3512473 0.10278676 3.1013074 26112
2.3369091 0.10306167 3.109602 26112
2.3170893 0.10344171 3.121068 26112
