# .PCD v0.7 - Point Cloud Data file format
VERSION 0.7
FIELDS x y z rgb
SIZE 4 4 4 4
TYPE F F F U
COUNT 1 1 1 1
WIDTH 412
HEIGHT 1
VIEWPOINT 0 0 0 1 0 0 0
POINTS 412
DATA ascii
2.155935 -0.38723403 3.5939479 6579812
2.1662955 -0.38746756 3.5879574 6579812
2.1788912 -0.3872802 3.5806756 6579812
2.1851091 -0.38744777 3.5770802 6514275
2.185147 -0.36691728 3.5771136 6710886
2.1851935 -0.34181592 3.5771539 6710886
2.1852388 -0.31746566 3.5771933 6710886
2.1845646 -0.29174134 3.5776525 6710886
2.1845617 -0.26738572 3.5777197 6121053
2.184608 -0.24230249 3.5777602 5858905
2.1846542 -0.21720949 3.5778003 5858905
2.1846766 -0.19248664 3.5778542 5858905
2.1847696 -0.1673744 3.5778675 5793368
2.1847699 -0.14225477 3.5779352 5858905
2.1848631 -0.11711573 3.5779493 5793368
2.1848626 -0.091983229 3.5780168 5662294
2.184932 -0.067207001 3.5780432 5006924
2.1849785 -0.042044699 3.578084 5006924
2.1850247 -0.016872546 3.5781245 5006924
2.1848502 0.0056072404 3.5782857 5465683
2.1843445 0.032639924 3.578651 6710886
2.1843908 0.05778385 3.578692 6710886
2.1844368 0.082937822 3.5787325 6710886
2.1789162 0.082791135 3.581924 6710886
2.171622 0.082688063 3.5861411 6710886
2.165185 0.082309425 3.5898614 6710886
2.155417 0.082756966 3.5955098 6710886
2.1397333 0.083005406 3.6045783 6710886
2.1225362 0.082855605 3.6145201 6710886
2.1031876 0.082918726 3.6257071 6710886
2.0816724 0.082732387 3.638145 6710886
2.0641475 0.082033411 3.6482749 6710886
2.0517077 0.082491122 3.6554687 6710886
2.0335312 0.08262857 3.6659775 6710886
2.0193591 0.082842931 3.6741714 6710886
2.0069761 0.08241912 3.6813297 6710886
1.9891584 0.082839489 3.691632 6710886
1.9792154 0.082347386 3.6973796 6710886
1.9675285 0.082689561 3.7041368 6710886
1.9526674 0.082487285 3.7127285 6710886
1.9420433 0.082877167 3.7188718 6710886
1.9292698 0.083025105 3.7262568 7566195
1.8364996 0.079392776 3.7798824 6710886
1.8350812 0.079490796 3.7807021 6710886
1.8324202 0.079375632 3.7822404 6710886
1.829856 0.079266466 3.7837229 6710886
1.8226508 0.079268724 3.7878885 6710886
1.8163302 0.079031073 3.7915423 6710886
1.8076383 0.07914646 3.7965679 6710886
1.7921246 0.079163469 3.8055367 6710886
1.7744765 0.079109766 3.8157399 6710886
1.7550333 0.079102412 3.8269811 6710886
1.7339131 0.079043835 3.8391912 6710886
1.7093861 0.085950159 3.8533897 6710886
1.6952586 0.085029729 3.8615549 6710886
1.6890585 0.085021935 3.8651397 6710886
1.679371 0.084755674 3.8707395 6710886
1.6633461 0.084507018 3.8800039 6710886
1.6457996 0.084404528 3.8901482 6710886
1.6267064 0.084437065 3.9011869 6710886
1.6050354 0.084612414 3.9137163 6710886
1.5874931 0.084846765 3.9238586 6710886
1.5755162 0.085044779 3.9307837 6710886
1.5579973 0.084332079 3.9409103 6710886
1.5429885 0.084577441 3.9495885 6710886
1.5295874 0.084974721 3.9573374 6710886
1.5120773 0.08557497 3.9674625 6710886
1.5024008 0.084706739 3.9730544 6710886
1.4919522 0.08417169 3.9790938 6710886
1.4776797 0.084684767 3.9873469 6710886
1.4658039 0.085477941 3.9942148 6710886
1.4657712 0.060320914 3.9941664 6710886
1.4657377 0.035163566 3.9941177 6710886
1.4657044 0.010005902 3.9940696 6710886
1.4656715 -0.015152069 3.9940212 6710886
1.4656384 -0.040310346 3.9939728 6710886
1.4656049 -0.065468915 3.9939241 6710886
1.4655718 -0.090627812 3.9938757 6710886
1.4656866 -0.11538127 3.9937432 6710886
1.465507 -0.14010471 3.9937804 6710886
1.4654733 -0.16526449 3.993732 6710886
1.4654403 -0.19042465 3.9936838 6710886
1.4653996 -0.21516825 3.9936409 6710886
1.4653747 -0.23990743 3.9935887 6710886
1.4653416 -0.2650685 3.9935405 6710886
1.4653081 -0.29022986 3.9934921 6710886
1.4652748 -0.31539163 3.9934435 6710886
1.4652413 -0.3405537 3.9933953 6710886
1.4653573 -0.36530602 3.9932623 6710886
1.4650004 -0.38708794 3.9934096 6579300
1.4771523 -0.38704607 3.9863844 6645093
1.4913268 -0.38700128 3.9781895 6579300
1.5020189 -0.38664234 3.9720087 6579300
1.5119538 -0.38698521 3.9662645 6579300
1.5304455 -0.38689885 3.9555733 6645093
1.5426435 -0.38707045 3.9485204 6710886
1.5563314 -0.38702267 3.9406073 6579300
1.5742949 -0.38734308 3.9302206 6447714
1.5861719 -0.38669112 3.9233561 6645093
1.6050621 -0.38716453 3.9124336 6579300
1.6263897 -0.38706878 3.9001031 6513507
1.6463704 -0.38678995 3.8885522 6645093
1.6639092 -0.38705915 3.8784113 6513507
1.6789483 -0.38696718 3.8697166 6513507
1.6957488 -0.38713464 3.860003 6447714
1.7023735 -0.38679722 3.856174 6579300
1.7096386 -0.38689601 3.8519738 6316128
1.8319192 -0.3603608 3.7813487 6710886
1.9284791 -0.38726789 3.7254505 7566195
1.9334669 -0.3877216 3.7225657 6776679
1.9414531 -0.38769531 3.7179484 6579300
1.9522083 -0.38745111 3.7117314 6645093
1.9663856 -0.38749284 3.7035346 6645093
1.9786428 -0.38732779 3.6964488 6645093
1.9892273 -0.38738939 3.6903286 6645093
2.0063024 -0.38749382 3.6804566 6579300
2.0188508 -0.38778287 3.6732016 6579300
2.0334551 -0.38743505 3.6647582 6579556
2.0506554 -0.38727349 3.6548147 6645349
2.0631285 -0.38757873 3.6476028 6579812
2.0821388 -0.38744086 3.6366119 6579812
2.103189 -0.38712808 3.6244431 6710886
2.122447 -0.38708729 3.6133094 6514275
2.1402605 -0.38721865 3.6030099 6645349
-1.0796509 -1.0192391 5.4628935 26112
-1.0795943 -1.0439373 5.4627943 26112
-1.0795373 -1.0686356 5.4626951 26112
-1.0795401 -1.0937941 5.4626293 26112
-1.0795122 -1.1193599 5.4625444 26112
-1.0795172 -1.1440904 5.462481 26112
-1.0794293 -1.1683427 5.4623652 26112
-1.0794321 -1.1934963 5.4622993 26112
-1.0794045 -1.2190588 5.4622145 26112
-1.0794076 -1.2442095 5.4621487 26112
-1.0793507 -1.2689025 5.4620495 26112
-1.0792844 -1.2897547 5.4619551 748043
-1.0731206 -1.2894702 5.4583921 222979
-1.0732257 -1.2688638 5.4585085 26112
-1.0731872 -1.2438221 5.4585533 26112
-1.0732558 -1.2189015 5.4586601 26112
-1.0732663 -1.193982 5.4587326 26112
-1.0735042 -1.1692039 5.4589367 26112
-1.0737875 -1.1437367 5.4591694 26112
-1.0737779 -1.118885 5.4592304 26112
-1.0738404 -1.0940394 5.4593334 26112
-1.073832 -1.0689291 5.4593954 26112
-1.0738952 -1.0438155 5.4595003 26112
-1.0739175 -1.018831 5.4595799 26112
-1.0739175 -0.99398285 5.4596472 26112
-1.0739394 -0.96899557 5.4597268 26112
-1.074003 -0.9438799 5.4598308 26112
-1.0740654 -0.91876465 5.4599342 26112
-1.0740074 -0.89378095 5.4599676 26112
-1.0740248 -0.86892039 5.4600449 26112
-1.0741107 -0.84393007 5.4601617 26112
-1.0741733 -0.81881255 5.4602652 26112
-1.0798634 -0.79460293 5.4636197 26112
-1.0798372 -0.81890088 5.4635396 26112
-1.0798109 -0.84319812 5.463459 26112
-1.0797831 -0.86877316 5.4633741 26112
-1.0797559 -0.89434749 5.4632902 26112
-1.0797604 -0.91908801 5.4632258 26112
-1.0796723 -0.9433428 5.46311 26112
-1.0796754 -0.96850717 5.4630442 26112
-1.0796483 -0.99407768 5.4629593 26112
2.5926325 -0.11220061 3.3422112 26112
2.592669 -0.088142663 3.3422549 26112
2.592705 -0.064083882 3.3422985 26112
2.5927441 -0.038757946 3.3423445 26112
2.592782 -0.013431107 3.3423901 26112
2.5928209 0.011896646 3.3424361 26112
2.5928588 0.03722531 3.3424819 26112
2.5928977 0.062554881 3.3425274 26112
2.5929337 0.086618833 3.3425713 26112
2.5778604 0.086476631 3.3512857 26112
2.564136 0.085821562 3.3592184 26112
2.5640996 0.061626524 3.3591747 26112
2.5640635 0.037432339 3.3591304 26112
2.563272 0.011239498 3.3595181 26112
2.5631096 -0.013502189 3.3595452 26112
2.5630717 -0.038971223 3.359499 26112
2.5630352 -0.063165948 3.3594549 26112
2.5629995 -0.087359831 3.3594105 26112
2.5629606 -0.11282617 3.359364 26112
2.562923 -0.13829163 3.3593175 26112
2.5628848 -0.16375612 3.3592713 26112
2.5628464 -0.18921965 3.3592253 26112
2.5628104 -0.21340923 3.3591812 26112
2.5627744 -0.23759797 3.3591371 26112
2.5627367 -0.26305884 3.3590908 26112
2.5626984 -0.28851885 3.3590438 26112
2.5626597 -0.3139779 3.3589978 26112
2.5626237 -0.33816314 3.3589535 26112
2.562588 -0.36234754 3.3589094 26112
2.5625498 -0.38780391 3.3588631 26112
2.5625114 -0.41325936 3.3588171 26112
2.5621533 -0.43955058 3.3589535 26112
2.5616508 -0.46363291 3.3591793 26112
2.5614302 -0.48776636 3.3592422 26112
2.5614853 -0.51261133 3.3591433 26112
2.5614471 -0.53806639 3.359097 26112
2.561409 -0.56352055 3.3590505 26112
2.5613713 -0.58897388 3.3590043 26112
2.5614054 -0.61348921 3.3589182 26112
2.5612309 -0.63763422 3.3589544 26112
2.5612609 -0.66278303 3.3588696 26112
2.5612228 -0.68823272 3.3588233 26112
2.5611849 -0.71368146 3.358777 26112
2.5141242 -0.81238967 3.3857193 26112
2.5140867 -0.83805877 3.3856721 26112
2.5140495 -0.86372662 3.3856251 26112
2.5140138 -0.88811028 3.3855798 26112
2.5139782 -0.91249329 3.3855352 26112
2.5139406 -0.93815839 3.385488 26112
2.5139031 -0.96382278 3.3854408 26112
2.5138674 -0.98820299 3.385396 26112
2.5138316 -1.0125823 3.3853509 26112
2.5137942 -1.038244 3.3853037 26112
2.5137568 -1.0639046 3.3852563 26112
2.513721 -1.0882814 3.3852117 26112
2.5136855 -1.1126573 3.3851669 26112
2.5136478 -1.1383152 3.385119 26112
2.5137711 -1.1649864 3.3849761 26112
2.5139787 -1.1894222 3.3847909 26112
2.5135388 -1.2127177 3.3849826 26112
2.5135009 -1.2383723 3.3849351 26112
2.5135257 -1.2636127 3.3848534 26112
2.5133405 -1.2840974 3.3849053 288772
2.5284777 -1.2838508 3.3761547 288516
2.5480213 -1.2839129 3.3648553 354309
2.5605154 -1.2839152 3.3576317 288772
2.5778694 -1.2837957 3.3475993 157442
2.5917225 -1.2834996 3.3395905 26112
2.5917535 -1.2632776 3.339627 26112
2.5917919 -1.2379991 3.3396728 26112
2.5918307 -1.2127196 3.3397188 26112
2.5918686 -1.1874396 3.3397644 26112
2.5918603 -1.1627667 3.3398352 26112
2.5919881 -1.1387955 3.3398259 26112
2.59198 -1.1141213 3.3398967 26112
2.5920181 -1.0888374 3.3399429 26112
2.5920568 -1.0635525 3.3399882 26112
2.5920949 -1.0382668 3.3400342 26112
2.5921335 -1.0129803 3.3400803 26112
2.5921714 -0.98769271 3.3401256 26112
2.5922103 -0.96240455 3.3401711 26112
2.5922019 -0.93772191 3.3402424 26112
2.5923295 -0.91374683 3.3402333 26112
2.5923214 -0.88906264 3.3403039 26112
2.5923595 -0.86377072 3.3403502 26112
2.5923982 -0.83847785 3.3403959 26112
2.5924363 -0.8131839 3.3404412 26112
2.5924747 -0.78788936 3.3404875 26112
2.5925133 -0.76259369 3.340533 26112
2.5925515 -0.73729706 3.3405783 26112
2.5925884 -0.71326441 3.3406222 26112
2.5926247 -0.68923116 3.3406658 26112
2.5926628 -0.66393197 3.3407111 26112
2.5927014 -0.63863182 3.3407574 26112
2.5927396 -0.61333078 3.3408031 26112
2.5927782 -0.58802879 3.3408489 26112
2.5928166 -0.56272596 3.3408945 26112
2.5923359 -0.53620923 3.3412435 26112
2.5919652 -0.51259995 3.3415213 26112
2.5921237 -0.48860335 3.3414946 26112
2.5920985 -0.46411222 3.3415744 26112
2.5921366 -0.43880066 3.3416202 26112
2.5921755 -0.41348839 3.341666 26112
2.5922134 -0.38817498 3.3417122 26112
2.5922523 -0.3628608 3.3417578 26112
2.5922904 -0.3375456 3.3418038 26112
2.5922689 -0.31262583 3.3418832 26112
2.5924265 -0.28862709 3.3418567 26112
2.592402 -0.26412657 3.3419361 26112
2.5924406 -0.23880787 3.3419826 26112
2.5924785 -0.21348824 3.3420279 26112
2.5925174 -0.18816771 3.3420739 26112
2.592556 -0.16284624 3.3421195 26112
2.5925939 -0.13752389 3.3421655 26112
0.53573811 -0.24461164 4.5310426 6710886
0.53573489 -0.21960665 4.5311117 6710886
0.53572965 -0.19464375 4.5311823 6710886
0.53572774 -0.16972551 4.53125 6710886
0.53572476 -0.14467159 4.5313187 6710886
0.53571653 -0.11966135 4.5313911 6710886
0.53573251 -0.094627649 4.5314484 6710886
0.53573608 -0.069616884 4.5315137 6710886
0.53573668 -0.044423312 4.5315809 6710886
0.53572774 -0.01951573 4.5316534 6710886
0.53572428 0.0051729563 4.5317221 6710886
0.53572583 0.030081782 4.5317879 6710886
0.53571808 0.055280276 4.5318604 6710886
0.53571129 0.080399968 4.5319309 6710886
0.53217304 0.080579296 4.533978 6710886
0.52600759 0.080242448 4.5375414 7105644
0.5167805 0.08053004 4.5428767 8158332
0.50418025 0.080431849 4.5501609 9211020
0.49115372 0.080882169 4.557693 10066329
0.48576593 0.081257679 4.5608091 10263708
0.47340655 0.080245614 4.5679522 6710886
0.45358002 0.080621317 4.5794158 6710886
0.43217754 0.079934463 4.5917883 6710886
0.41629136 0.07958106 4.6009712 6710886
0.40484643 0.079882793 4.6075888 6710886
0.38677895 0.080107838 4.6180353 6710886
0.37336493 0.080206461 4.6257911 6710886
0.35687113 0.079842061 4.6353254 7105644
0.357113 0.055030797 4.6351194 6646373
0.35754025 0.029853178 4.6348047 5858905
0.35796678 0.0046886252 4.63449 5858905
0.35838068 -0.01970071 4.6341858 5858905
0.35880709 -0.044839174 4.6338716 5858905
0.35923314 -0.069964588 4.6335578 5858905
0.35983098 -0.094698846 4.6331458 6645349
0.35990036 -0.11979313 4.633038 6710886
0.36068177 -0.14487959 4.6325188 6710886
0.36075139 -0.16995688 4.6324115 6710886
0.36153173 -0.19500785 4.6318927 6710886
0.36160111 -0.22006816 4.6317854 6710886
0.35702157 -0.24468057 4.634367 6710886
0.35675907 -0.26976836 4.6344519 6710886
0.35718656 -0.2948522 4.6341367 6710886
0.3576138 -0.31992298 4.6338224 6710886
0.35804093 -0.34498057 4.6335082 6710886
0.35846806 -0.37002504 4.633194 6710886
0.35880411 -0.3897481 4.632947 6710886
0.37052476 -0.39045945 4.6261683 6317664
0.38548064 -0.39002755 4.6175227 6579812
0.40305233 -0.38997585 4.6073642 6579812
0.4145031 -0.39013815 4.6007433 6579812
0.43263566 -0.38995662 4.5902605 6579812
0.4543606 -0.39004683 4.5777001 6645349
0.47353494 -0.38967773 4.5666156 6710886
0.48879415 -0.38975343 4.5577936 9671571
0.49117565 -0.39004311 4.5564156 6579812
0.5024901 -0.38969782 4.5498753 9013641
0.50662792 -0.38978937 4.5474825 6579812
0.51568317 -0.39010811 4.5422463 6579812
0.52574158 -0.38985187 4.5364323 7039851
0.52906716 -0.38983536 4.5345092 6579812
0.53321791 -0.38990614 4.5321097 6514275
0.53538859 -0.3897973 4.5308547 6579556
0.53575623 -0.38968068 4.5306425 6579300
0.53575587 -0.36967322 4.5306964 6710886
0.53575099 -0.34467128 4.5307665 6710886
0.53574967 -0.31966943 4.5308342 6710886
0.53574479 -0.29466712 4.5309048 6710886
0.5357399 -0.26961699 4.5309744 6710886
-0.11984384 -0.38987476 4.9096746 6579300
-0.10712624 -0.38988256 4.9023223 6710886
-0.091220379 -0.38942885 4.8931274 6645093
-0.072421312 -0.38986707 4.8822575 6513507
-0.060420632 -0.3892701 4.8753214 6645093
-0.043303609 -0.3893517 4.8654251 6645093
-0.02292943 -0.39005339 4.8536434 6447714
-0.0034552813 -0.38959143 4.8423858 6513507
0.014503241 -0.38987532 4.8320026 6447714
0.029916406 -0.3896848 4.823092 8355711
0.040447474 -0.38957572 4.8170037 8026746
0.045799017 -0.3895658 4.81391 6513507
0.05303359 -0.38934636 4.8097281 6513507
0.0592345 -0.38933602 4.8061428 6579300
0.059834719 -0.38918236 4.8057966 6579300
0.059826851 -0.36740848 4.8058591 6710886
0.059824467 -0.34241122 4.8059282 6710886
0.059821486 -0.31741425 4.8059969 6710886
0.059821963 -0.29241976 4.8060637 6710886
0.059810877 -0.26757178 4.8061366 6710886
0.059800267 -0.24271779 4.8062096 6710886
0.059800148 -0.21756627 4.8062773 6710886
0.059802532 -0.19226843 4.8063436 6710886
0.059797168 -0.1671132 4.8064146 6710886
0.059789658 -0.14241041 4.8064857 6710886
0.059784889 -0.11786652 4.8065538 6710886
0.059774399 -0.092997245 4.8066273 6710886
0.059782743 -0.067259282 4.8066912 6710886
0.059808612 -0.041542117 4.8067455 6710886
0.059812307 -0.017226312 4.8068085 6710886
0.059808254 0.0073100007 4.8068767 6710886
0.059804559 0.031847101 4.8069453 6710886
0.059806347 0.057353307 4.8070126 6710886
0.059788346 0.083090134 4.8070917 6710886
0.041159928 0.083227605 4.817862 8092539
0.030899286 0.082602724 4.8237925 9013641
0.01403594 0.082008056 4.8335409 6710886
-0.0030694008 0.081904374 4.8434296 6710886
-0.022263288 0.081932388 4.8545265 6710886
-0.043851256 0.082102038 4.8670082 6710886
-0.059790969 0.082306027 4.876224 6710886
-0.071953773 0.082505934 4.8832564 6710886
-0.090345979 0.081680477 4.8938875 6710886
-0.10580277 0.082050599 4.9028249 6710886
-0.11867905 0.082429193 4.9102707 6710886
-0.13171613 0.082852833 4.9178095 6710886
-0.13143373 0.057139847 4.9175763 6710886
-0.13115108 0.03143397 4.9173441 6710886
-0.13088155 0.0069589219 4.9171228 6710886
-0.13061285 -0.017509587 4.9169016 6710886
-0.13034403 -0.041971568 4.9166803 6710886
-0.13006175 -0.067649558 4.9164481 6710886
-0.12977946 -0.093320467 4.9162159 6710886
-0.129511 -0.11776222 4.9159946 6710886
-0.12924218 -0.14219746 4.9157739 6710886
-0.14827251 -0.19495781 4.9266348 3684408
-0.1480279 -0.21710663 4.926434 3684408
-0.14774263 -0.24294019 4.9261994 3684408
-0.14745736 -0.26876664 4.9259653 3684408
-0.14718592 -0.29335645 4.9257421 3684408
-0.14691436 -0.31793967 4.925519 3684408
-0.14664304 -0.34251636 4.9252958 3684408
-0.14637148 -0.36708641 4.9250731 3684408
-0.14612722 -0.38919395 4.9248724 3684408
