# .PCD v0.7 - Point Cloud Data file format
VERSION 0.7
FIELDS x y z rgb
SIZE 4 4 4 4
TYPE F F F U
COUNT 1 1 1 1
WIDTH 51
HEIGHT 1
VIEWPOINT 0 0 0 1 0 0 0
POINTS 51
DATA ascii
0.91739845 -0.96600097 4.8047843 24832
0.87764788 -0.94895494 4.7819567 342021
0.87100589 -0.94819611 4.7781367 151298
0.85643202 -0.94732058 4.7697515 24832
0.83685917 -0.94528079 4.7584929 24576
0.82480478 -0.942918 4.7515621 24064
0.82479072 -0.96258909 4.7514958 26112
0.82477254 -0.98816049 4.7514095 26112
0.82475609 -1.011764 4.7513294 26112
0.8247382 -1.0373336 4.7512431 26112
0.82472008 -1.0629025 4.7511568 26112
0.82470381 -1.0865034 4.7510767 26112
0.82468534 -1.1120702 4.7509904 26112
0.82466769 -1.1376361 4.7509041 26112
0.82464945 -1.1632009 4.7508178 26112
0.82463175 -1.1887648 4.750731 26112
0.82461512 -1.2123613 4.7506518 26112
0.82459688 -1.2379231 4.7505651 26112
0.824579 -1.2634842 4.7504783 26112
0.82456249 -1.2870783 4.7503991 26112
0.82454467 -1.3126374 4.7503128 26112
0.87066329 -1.4128978 4.776557 26112
0.87065166 -1.4287118 4.7765031 2192417
0.88912886 -1.4281493 4.7871389 945166
0.90693557 -1.4276772 4.7973886 26112
0.91646653 -1.4282494 4.8028722 1142033
0.93754452 -1.4282691 4.8150029 879373
0.95330149 -1.4289629 4.8240695 26112
0.96363068 -1.4284389 4.8300161 1273363
0.97592294 -1.4288151 4.8370895 26112
0.97593606 -1.4128004 4.8371444 26112
0.97595716 -1.3867756 4.837234 26112
0.975977 -1.3627518 4.8373165 26112
0.97599655 -1.3387271 4.8373995 26112
0.97601777 -1.3126996 4.8374891 26112
0.97603875 -1.2866708 4.8375793 26112
0.9760586 -1.2626436 4.8376617 26112
0.97607803 -1.2386153 4.8377447 26112
0.97609937 -1.2125837 4.8378339 26112
0.97612047 -1.1865512 4.837924 26112
0.97614014 -1.1625202 4.838007 26112
0.97615981 -1.1384885 4.8380895 26112
0.97618115 -1.1124531 4.8381791 26112
0.97620237 -1.0864166 4.8382688 26112
0.97622192 -1.0623822 4.8383517 26112
0.97624177 -1.0383466 4.8384347 26112
0.97626275 -1.0123073 4.8385243 26112
0.97628421 -0.98626715 4.838614 26112
0.97629535 -0.97224498 4.8386621 26112
0.96024233 -0.97038817 4.8294287 23808
0.93700939 -0.96849746 4.8160634 25600
