# .PCD v0.7 - Point Cloud Data file format
VERSION 0.7
FIELDS x y z rgb
SIZE 4 4 4 4
TYPE F F F U
COUNT 1 1 1 1
WIDTH 1227
HEIGHT 1
VIEWPOINT 0 0 0 1 0 0 0
POINTS 1227
DATA ascii
1.7649339 -0.063316047 3.8207765 986895
-1.8791798 -0.037804104 3.802119 657930
-1.8631961 -0.037895687 3.8113294 657930
-1.8446709 -0.038001817 3.8220038 657930
1.7649626 -0.03799025 3.8208396 986895
-1.8792106 -0.012601552 3.8021812 657930
-1.8632265 -0.012632078 3.8113911 657930
-1.8447012 -0.012667459 3.8220661 657930
1.764992 -0.012663605 3.8209031 986895
-1.8792416 0.012601825 3.802243 657930
-1.863258 0.012632352 3.8114552 657930
-1.844992 0.012166818 3.8219788 657930
1.7650216 0.012663883 3.8209674 986895
-1.8792725 0.03780603 3.8023059 657930
-1.8632885 0.037897624 3.811517 657930
-1.8460015 0.037996665 3.8214796 657930
1.7650503 0.037992209 3.8210309 986895
-1.8793035 0.063011065 3.8023684 657930
-1.8633188 0.063163705 3.8115795 657930
-1.8460317 0.063328795 3.8215413 657930
1.7650801 0.063321367 3.8210933 986895
-1.8793343 0.088216923 3.8024311 657930
-1.8633497 0.088430621 3.8116424 657930
-1.8460619 0.088661768 3.8216045 657930
1.7651094 0.088651374 3.8211575 986895
-2.0397248 -1.2842519 3.8376734 419846
1.9632733 -1.2843364 3.8406997 426502
-2.0397258 -1.2626258 3.8373151 26112
1.9632725 -1.2628479 3.840194 98305
-2.0397255 -1.2375089 3.8374679 26112
1.9632723 -1.2377846 3.8402939 98561
-2.0397258 -1.2123879 3.8377745 26112
1.9632723 -1.2123287 3.8402936 98561
-2.0397263 -1.1875869 3.8374693 26112
1.9632723 -1.1872631 3.8403943 98561
-2.0397265 -1.1627918 3.8371625 26112
1.9632717 -1.1626091 3.8399906 98305
-2.0397267 -1.1376688 3.8374705 26112
1.963272 -1.1375535 3.8402929 98561
-2.0397272 -1.112232 3.837471 26112
1.9632725 -1.1124918 3.8405936 98561
-2.0397272 -1.087431 3.8374717 26112
1.9632719 -1.0878433 3.8401923 98305
-2.0397274 -1.0626299 3.8374722 26112
1.9632719 -1.0627756 3.8402922 98561
-2.0397282 -1.0371929 3.8374722 26112
1.9632719 -1.0373198 3.8402922 98561
-2.0397284 -1.0123768 3.8371582 26112
1.9632716 -1.0126581 3.8400843 98305
-2.0397282 -0.98792326 3.8377788 26112
1.9632714 -0.98800021 3.840292 98561
-2.0397286 -0.96278971 3.8374736 26112
1.9632713 -0.96254456 3.8402917 98305
-2.0397289 -0.93735254 3.8374743 26112
1.9632711 -0.93708867 3.8402915 98305
-2.0397289 -0.91223049 3.8373213 26112
1.9632713 -0.91242391 3.8404996 98305
-2.0397298 -0.8946929 3.83673 25344
1.9632698 -0.89562517 3.8387325 98049
-1.8300384 -0.85793018 3.8278279 657930
-1.8126755 -0.85827541 3.8378313 921102
-1.7962979 -0.85909945 3.8472664 986895
1.7172889 -0.85846621 3.8458126 921102
1.7376112 -0.85820413 3.8340573 855309
1.7515075 -0.85752535 3.8260207 657930
-1.830063 -0.83732581 3.827879 657930
-1.8125561 -0.83745807 3.8379664 657930
-1.7963222 -0.83839017 3.8473179 657930
1.7176512 -0.83779323 3.8456688 657930
1.7377559 -0.83756626 3.8340385 657930
1.7515311 -0.83693075 3.8260727 657930
-1.8300931 -0.8119657 3.8279414 657930
-1.812633 -0.81250775 3.8380017 657930
-1.7963524 -0.81290132 3.8473816 657930
1.7175449 -0.8125692 3.8458097 657930
1.7378167 -0.81248331 3.8340833 657930
1.7515604 -0.81158268 3.8261361 657930
-1.8301234 -0.78660458 3.8280053 657930
-1.8127102 -0.78755754 3.8380363 657930
-1.7963818 -0.78741151 3.8474462 657930
1.7175738 -0.78709006 3.8458748 657930
1.7380238 -0.78756005 3.834043 657930
1.7515895 -0.78623384 3.8261998 657930
-1.8300332 -0.76161456 3.8281372 657930
-1.8128846 -0.76260847 3.8380151 657930
-1.7964114 -0.76192111 3.8475101 657930
1.7174678 -0.76186252 3.8460157 657930
1.7377942 -0.76247346 3.8342557 657930
1.7516168 -0.76246846 3.8262596 657930
-1.8301817 -0.73746508 3.8281276 657930
-1.8128647 -0.73765671 3.8381069 657930
-1.7964412 -0.73642969 3.8475733 657930
1.7175196 -0.73717916 3.8460643 657930
1.7375649 -0.73738295 3.8344684 657930
1.7516441 -0.73870242 3.8263192 657930
-1.830331 -0.71331638 3.8281186 657930
-1.8127518 -0.71238345 3.8382516 657930
-1.7963558 -0.71196336 3.8477006 657930
1.7177676 -0.71278149 3.8459983 657930
1.7377714 -0.71245688 3.8344274 657930
1.7516732 -0.71335107 3.8263829 657930
-1.8302406 -0.68832314 3.8282504 657930
-1.8125247 -0.68726385 3.8384631 657930
-1.7966073 -0.68813479 3.8476319 657930
1.7178198 -0.68809873 3.846046 657930
1.737832 -0.68736964 3.8344731 657930
1.7525402 -0.68580014 3.825969 657930
-1.8302709 -0.66295815 3.8283138 657930
-1.8127317 -0.66231215 3.8384225 657930
-1.7965273 -0.66313714 3.8477576 657930
1.7177142 -0.66286677 3.8461883 657930
1.7379084 -0.66244078 3.8345079 657930
1.7529849 -0.66252041 3.8257864 657930
-1.830301 -0.63759232 3.8283765 657930
-1.8127759 -0.63735652 3.8384764 657930
-1.7965568 -0.63764256 3.847821 657930
1.7177424 -0.63738269 3.8462532 657930
1.7380658 -0.63767332 3.8344951 657930
1.7530138 -0.63717151 3.82585 657930
-1.8303314 -0.61222565 3.82844 657930
-1.8129337 -0.61256337 3.8384643 657930
-1.7965865 -0.61214697 3.8478851 657930
1.7180464 -0.61228812 3.8461568 657930
1.7382227 -0.61290646 3.8344836 657930
1.7530429 -0.61182165 3.8259134 657930
-1.8303616 -0.58685815 3.8285036 657930
-1.8130915 -0.5877707 3.8384516 657930
-1.7966167 -0.58665061 3.8479493 657930
1.7188668 -0.58690393 3.8457634 657930
1.7379935 -0.58780724 3.8346958 657930
1.7530723 -0.5864709 3.8259773 657930
-1.8305804 -0.56123382 3.8284583 657930
-1.8130708 -0.56281179 3.8385434 657930
-1.7965316 -0.56217694 3.8480761 657930
1.7191604 -0.56273961 3.8456697 657930
1.7380222 -0.56239802 3.8347595 657930
1.7530172 -0.56186575 3.8260875 657930
-1.8315978 -0.53727657 3.827949 657930
-1.812958 -0.53752893 3.8386886 657930
-1.7967826 -0.53834862 3.8480072 657930
1.7192512 -0.53822392 3.8456953 657930
1.7379081 -0.53713989 3.8349054 657930
1.7532114 -0.53818971 3.8260503 657930
-1.8318883 -0.51322615 3.827858 657930
-1.812988 -0.51209247 3.8387523 657930
-1.7967024 -0.51334375 3.8481331 657930
1.7191496 -0.51303703 3.8458335 657930
1.7378858 -0.51220173 3.8349974 657930
1.7531563 -0.51358289 3.8261604 657930
-1.8317213 -0.48845977 3.8280327 657930
-1.8127621 -0.48695838 3.8389635 657930
-1.7967325 -0.48784414 3.8481967 657930
1.7191788 -0.48755273 3.8458982 657930
1.7380435 -0.4874309 3.834986 657930
1.7531855 -0.48822898 3.8262246 657930
-1.8317521 -0.46309274 3.8280952 657930
-1.8129188 -0.46216181 3.8389509 657930
-1.7967623 -0.46234354 3.8482609 657930
1.7192078 -0.4620676 3.8459625 657930
1.738201 -0.46266058 3.8349738 657930
1.7532151 -0.46287408 3.8262877 657930
-1.8317821 -0.43772507 3.8281598 657930
-1.8131248 -0.43752784 3.8389108 657930
-1.7967921 -0.43684223 3.8483248 657930
1.7192361 -0.43658143 3.8460279 657930
1.7385083 -0.43805891 3.8348746 657930
1.7532442 -0.43751845 3.8263516 657930
-1.8318123 -0.41235647 3.8282218 657930
-1.813446 -0.41306195 3.8388038 657930
-1.7968221 -0.41134003 3.8483884 657930
1.7190586 -0.41201103 3.8462079 657930
1.7381932 -0.41310111 3.8351359 657930
1.7532731 -0.41216192 3.8264155 657930
-1.8318424 -0.38698712 3.8282847 657930
-1.8131349 -0.38807648 3.8390629 657930
-1.79685 -0.38743097 3.8484485 657930
1.7194906 -0.38819388 3.846034 657930
1.7382221 -0.38768607 3.8351989 657930
1.7533023 -0.38680452 3.826479 657930
-1.8318729 -0.36161691 3.8283501 657930
-1.8131649 -0.36263487 3.8391259 657930
-1.7968779 -0.36352107 3.8485086 657930
1.7193191 -0.3633042 3.8462129 657930
1.7382507 -0.36227003 3.8352642 657930
1.7533314 -0.36144632 3.8265424 657930
-1.8317752 -0.33653665 3.828485 657930
-1.813195 -0.33719242 3.8391895 657930
-1.7979417 -0.33862075 3.8479745 657930
1.7193476 -0.33781484 3.8462768 657930
1.7382801 -0.33685321 3.8353271 657930
1.7532762 -0.33683094 3.8266525 657930
-1.8320694 -0.31280529 3.8283908 657930
-1.8132248 -0.31174904 3.8392529 657930
-1.7981941 -0.31245223 3.8479123 657930
1.7193763 -0.31232458 3.8463407 657930
1.7380502 -0.31173241 3.8355396 657930
1.7534702 -0.31315356 3.8266151 657930
-1.8319601 -0.28867283 3.8285308 657930
-1.8129135 -0.2867527 3.8395121 657930
-1.7982242 -0.28695065 3.8479762 657930
1.7194049 -0.28683347 3.8464055 657930
1.7382038 -0.28727567 3.8355291 657930
1.753415 -0.28853664 3.8267252 657930
-1.8319902 -0.26329932 3.8285947 657930
-1.8133661 -0.26261547 3.8393285 657930
-1.798254 -0.26144826 3.8480399 657930
1.7193036 -0.26163238 3.8465436 657930
1.7387613 -0.26317325 3.8352821 657930
1.7534444 -0.26317519 3.8267894 657930
-1.8320205 -0.23792496 3.8286572 657930
-1.8135684 -0.23829982 3.8392894 657930
-1.7982818 -0.23753904 3.8480995 657930
1.7196012 -0.23779085 3.8464465 657930
1.7383922 -0.23835492 3.8355751 657930
1.7534733 -0.23781285 3.8268528 657930
-1.8320507 -0.21254985 3.8287201 657930
-1.8133414 -0.21314828 3.8395004 657930
-1.79831 -0.21362904 3.84816 657930
1.7194875 -0.21354187 3.84659 657930
1.7384207 -0.21293394 3.8356392 657930
1.7535025 -0.21244967 3.826916 657930
-1.8320811 -0.18717389 3.8287842 657930
-1.8133717 -0.18770084 3.8395634 657930
-1.7983396 -0.18812421 3.8482239 657930
1.7195165 -0.18804744 3.8466537 657930
1.7384504 -0.18751211 3.8357024 657930
1.7535318 -0.18708567 3.8269801 657930
-1.8321111 -0.161797 3.8288474 657930
-1.8134012 -0.16225258 3.8396275 657930
-1.7983695 -0.16261852 3.8482878 657930
1.7195451 -0.16255218 3.8467174 657930
1.7384789 -0.16208944 3.835767 657930
1.7535609 -0.16172081 3.8270433 657930
-1.8321421 -0.13641933 3.8289104 657930
-1.8134314 -0.13680348 3.8396912 657930
-1.7983997 -0.13711201 3.8483517 657930
1.7195737 -0.1370561 3.8467834 657930
1.7385079 -0.13666591 3.8358307 657930
1.7535899 -0.13635509 3.8271067 657930
-1.8320326 -0.11227661 3.8290503 657930
-1.8134611 -0.11135347 3.8397541 657930
-1.7984295 -0.11160465 3.8484161 657930
1.7196028 -0.11155915 3.8468461 657930
1.7382783 -0.11153066 3.8360426 657930
1.7542819 -0.11144419 3.8267863 657930
-1.8323264 -0.088547319 3.8289568 657930
-1.8134897 -0.087493345 3.8398144 657930
-1.7984573 -0.087690733 3.8484752 657930
1.7196295 -0.087654993 3.8469074 657930
1.7388431 -0.087754354 3.8357921 657930
1.7548975 -0.088775307 3.8265021 657930
-1.8322287 -0.063453868 3.8290932 657930
-1.8135178 -0.063632503 3.8398743 657930
-1.7984855 -0.063776053 3.8485358 657930
1.7196563 -0.063750066 3.846967 657930
1.738591 -0.063568555 3.8360143 657930
1.7549267 -0.063411973 3.826565 657930
-1.8322592 -0.038072929 3.829155 657930
-1.8135484 -0.038180131 3.8399365 657930
-1.7985153 -0.038266256 3.8485997 657930
1.7196853 -0.038250662 3.8470318 657930
1.7386202 -0.038141765 3.8360786 657930
1.7549558 -0.038047809 3.8266284 657930
-1.8322893 -0.012691164 3.8292186 657930
-1.8135774 -0.012726898 3.8400016 657930
-1.798545 -0.012755606 3.8486636 657930
1.7207886 -0.013086684 3.846473 657930
1.738649 -0.012714108 3.8361428 657930
1.7549847 -0.012682787 3.8266933 657930
-1.8326752 0.013143525 3.8290782 657930
-1.8136079 0.01272718 3.8400655 657930
-1.7985752 0.012755889 3.848727 657930
1.7210095 0.012748265 3.8464272 657930
1.7380819 0.012381515 3.8365502 657930
1.7542988 0.013591066 3.827172 657930
-1.8335923 0.038067762 3.8286295 657930
-1.813638 0.038182098 3.8401279 657930
-1.798605 0.038268231 3.8487914 657930
1.7210383 0.038245365 3.8464921 657930
1.7374492 0.038150962 3.836998 657930
1.7537895 0.038056985 3.8275447 657930
-1.833622 0.063447297 3.8286922 657930
-1.8136685 0.06363786 3.8401923 657930
-1.7986346 0.063781418 3.848855 657930
1.7210666 0.063743331 3.846555 657930
1.7374783 0.063585997 3.8370616 657930
1.7538184 0.063429333 3.8276093 657930
-1.8337847 0.088589422 3.8286788 657930
-1.813696 0.087503396 3.8402514 657930
-1.798663 0.087700799 3.8489151 657930
1.7210943 0.087648407 3.8466163 657930
1.7376624 0.087628424 3.8370309 657930
1.7538478 0.088802516 3.827672 657930
-2.0397027 -1.2840202 3.864527 222979
1.9632939 -1.2843082 3.8653953 559624
-2.0397027 -1.261999 3.8646252 26112
1.963294 -1.2622833 3.8654974 34816
-2.0397034 -1.2371873 3.8642349 26112
1.9632936 -1.2374605 3.8650889 34816
-2.0397029 -1.2123765 3.8648214 26112
1.9632934 -1.2126517 3.8656998 34816
-2.0397036 -1.1875671 3.8644319 26112
1.9632932 -1.1878316 3.8652923 34816
-2.0397036 -1.1623425 3.8645289 26112
1.9632931 -1.1626025 3.8653932 34816
-2.0397041 -1.1375216 3.8643274 26112
1.963293 -1.1373715 3.8654952 34816
-2.0397043 -1.1127125 3.8645301 26112
1.9632925 -1.1125619 3.865087 34816
-2.0397043 -1.0874876 3.8648236 26112
1.9632928 -1.0873384 3.8653927 34816
-2.0397046 -1.0626907 3.8644342 26112
1.9632927 -1.0625209 3.865603 34816
-2.0397048 -1.0374632 3.864532 26112
1.9632924 -1.0376942 3.865392 34816
-2.0397053 -1.0126483 3.8643305 26112
1.9632921 -1.012072 3.865392 34816
-2.039706 -0.98783284 3.8645325 26112
1.9632919 -0.98725051 3.8651812 34560
-2.0397058 -0.96221638 3.8645327 26112
1.9632922 -0.96243024 3.8653913 34816
-2.039706 -0.93739551 3.8647356 26112
1.9632924 -0.93760556 3.8656018 34816
-2.0397065 -0.91258335 3.8645341 26112
1.9632919 -0.91278577 3.8653915 34816
-2.0397084 -0.89644831 3.8622627 88577
1.9632912 -0.8975957 3.8643389 96001
-1.7840533 -0.8579995 3.8543251 921102
-1.7623054 -0.85835838 3.8668571 921102
-1.7482287 -0.85886347 3.8749664 657930
1.6703162 -0.85842425 3.8729851 657930
1.6868635 -0.85820967 3.8634126 921102
1.7049918 -0.85762703 3.8529286 921102
-1.7835031 -0.83722043 3.854708 657930
-1.7621661 -0.83754361 3.8670032 657930
-1.7482412 -0.84763217 3.8749945 657930
1.6703392 -0.83757687 3.8730381 657930
1.6870499 -0.83741391 3.8633723 657930
1.7047107 -0.83683038 3.8531575 657930
-1.7837194 -0.81237715 3.8546629 657930
-1.7623246 -0.81256551 3.8669908 657930
1.6703674 -0.81191772 3.8731029 657930
1.6872091 -0.81245953 3.8633583 657930
1.7048606 -0.81252277 3.853148 657930
-1.7838411 -0.78752935 3.8546712 657930
-1.7624836 -0.78758782 3.8669789 657930
1.6702833 -0.78675866 3.8732316 657930
1.6870404 -0.78750288 3.8635364 657930
1.7050109 -0.78821582 3.8531377 657930
-1.7840567 -0.76291591 3.8546255 657930
-1.7624618 -0.76244861 3.8670704 657930
1.6705378 -0.76277024 3.8731604 657930
1.6868708 -0.76254314 3.8637128 657930
1.704916 -0.76306236 3.8532729 657930
-1.7838525 -0.73781741 3.8548241 657930
-1.7620862 -0.73730117 3.867367 657930
1.6704482 -0.73814267 3.8732903 657930
1.6870297 -0.73758578 3.8637006 657930
1.7049448 -0.73753291 3.8533373 657930
-1.783882 -0.712277 3.8548875 657930
-1.7622443 -0.71232003 3.8673549 657930
1.6704764 -0.71248025 3.8733566 657930
1.6871881 -0.71262938 3.8636885 657930
1.7049735 -0.71200252 3.8534024 657930
-1.7837738 -0.68695307 3.8550303 657930
-1.7624526 -0.68750131 3.867316 657930
1.6705045 -0.68681669 3.8734214 657930
1.6873472 -0.68767345 3.8636761 657930
1.7048786 -0.68684423 3.8535368 657930
-1.7838004 -0.66209388 3.8550937 657930
-1.762627 -0.66268241 3.8672924 657930
1.6705309 -0.66275656 3.8734829 657930
1.6873243 -0.66255319 3.8637691 657930
1.7050288 -0.66253477 3.8535271 657930
-1.7841113 -0.63771522 3.8549917 657930
-1.7626059 -0.63753814 3.8673849 657930
1.6718419 -0.63857317 3.8728011 657930
1.687061 -0.63726383 3.864001 657930
1.7051787 -0.63822579 3.8535173 657930
-1.784135 -0.6130845 3.8550572 657930
-1.7623456 -0.61222303 3.8676162 657930
1.6718702 -0.61291212 3.8728662 657930
1.6869851 -0.61229712 3.8641245 657930
1.7054584 -0.61246747 3.8534379 657930
-1.7840265 -0.5877561 3.8552003 657930
-1.7622713 -0.58723181 3.867738 657930
1.6718982 -0.58725035 3.8729315 657930
1.6872617 -0.587502 3.8640435 657930
1.706383 -0.58741796 3.8529828 657930
-1.7840564 -0.56221092 3.8552644 657930
-1.7625962 -0.56257671 3.8676298 657930
1.6719265 -0.56158763 3.8729973 657930
1.6875379 -0.56270909 3.8639634 657930
1.706412 -0.5618875 3.8530476 657930
-1.7839484 -0.53687871 3.8554075 657930
-1.7629215 -0.53792417 3.8675196 657930
1.6719528 -0.5375281 3.8730578 657930
1.6874627 -0.5377416 3.8640852 657930
1.7062387 -0.53695989 3.8532262 657930
-1.7839714 -0.5122425 3.8554726 657930
-1.7626041 -0.5127604 3.867785 657930
1.6719793 -0.51346785 3.8731194 657930
1.6873449 -0.51228988 3.8642342 657930
1.7065338 -0.51274991 3.8531325 657930
-1.7844286 -0.48810947 3.8552861 657930
-1.7626337 -0.48713055 3.8678489 657930
1.6720076 -0.48780265 3.8731847 657930
1.6871107 -0.48698953 3.8644495 657930
1.7066245 -0.48818627 3.8531585 657930
-1.7841713 -0.46321493 3.8555124 657930
-1.7623166 -0.46195984 3.8681097 657930
1.6720357 -0.46213657 3.8732498 657930
1.6872655 -0.46234798 3.8644397 657930
1.7065227 -0.46294874 3.8532982 657930
-1.7842008 -0.43766561 3.8555772 657930
-1.7626901 -0.43746883 3.8679745 657930
1.6720642 -0.43646973 3.8733156 657930
1.6878313 -0.43805256 3.8641903 657930
1.7065513 -0.43741411 3.8533623 657930
-1.7842308 -0.41211531 3.8556416 657930
-1.7630649 -0.41298106 3.867835 657930
1.6720905 -0.41240621 3.8733766 657930
1.6874554 -0.41306075 3.8644867 657930
1.7065799 -0.41187859 3.8534272 657930
-1.7841227 -0.38677508 3.8557842 657930
-1.7627474 -0.38780659 3.8680978 657930
1.6721169 -0.38834196 3.8734376 657930
1.6874838 -0.38745102 3.8645508 657930
1.7064779 -0.38663605 3.8535664 657930
-1.7841914 -0.36236805 3.8558226 657930
-1.7627773 -0.36217254 3.8681636 657930
1.6721451 -0.36267257 3.8735027 657930
1.6875118 -0.36184046 3.8646164 657930
1.7067763 -0.36274776 3.8534698 657930
-1.7856804 -0.33803469 3.8550425 657930
-1.7625458 -0.33683786 3.8683765 657930
1.672173 -0.33700228 3.8735681 657930
1.6871132 -0.33699685 3.8649256 657930
1.7066622 -0.33845916 3.8536124 657930
-1.7856058 -0.31304112 3.8551643 657930
-1.7628337 -0.31250313 3.8682899 657930
1.6722012 -0.31133115 3.8736334 657930
1.6879917 -0.31305072 3.8644934 657930
1.7066905 -0.31292027 3.8536773 657930
-1.7856352 -0.28749153 3.8552287 657930
-1.7631222 -0.28817061 3.8681982 657930
1.6722276 -0.28726369 3.8736947 657930
1.6875929 -0.28820544 3.8648026 657930
1.7067192 -0.28738055 3.8537421 657930
-1.7856655 -0.26194102 3.8552921 657930
-1.7634926 -0.26314682 3.8680656 657930
1.672254 -0.26319546 3.8737555 657930
1.6876217 -0.26259154 3.8648674 657930
1.706748 -0.26184005 3.8538055 657930
-1.7854505 -0.23675853 3.8554966 657930
-1.764191 -0.23714931 3.8677454 657930
1.6722821 -0.23752187 3.8738208 657930
1.6876497 -0.23697682 3.8649335 657930
1.7066455 -0.23658958 3.8539453 657930
-1.7859827 -0.21286644 3.8552661 657930
-1.7640778 -0.21167734 3.867892 657930
1.6723102 -0.21184736 3.8738859 657930
1.6873289 -0.21180829 3.8651979 657930
1.706944 -0.21270275 3.8538485 657930
-1.7857503 -0.18847878 3.8554769 657930
-1.7644063 -0.18767777 3.867779 657930
1.6723366 -0.18777677 3.8739471 657930
1.6880716 -0.18786132 3.8648438 657930
1.7068298 -0.18840615 3.853991 657930
-1.7857803 -0.16292503 3.8555415 657930
-1.764276 -0.1634486 3.8679309 657930
1.672363 -0.16370539 3.8740084 657930
1.6877314 -0.1633298 3.8651187 657930
1.7068584 -0.16286227 3.8540559 657930
-1.7858104 -0.13737045 3.8556056 657930
-1.764305 -0.1378119 3.8679957 657930
1.6723911 -0.13802843 3.874073 657930
1.6877598 -0.1377117 3.8651841 657930
1.7068869 -0.13731754 3.8541203 657930
-1.7858396 -0.11181502 3.8556697 657930
-1.7643347 -0.11217435 3.8680611 657930
1.6724193 -0.11235061 3.8741386 657930
1.6877878 -0.11209284 3.8652489 657930
1.7069156 -0.11177196 3.8541851 657930
-1.7857292 -0.086437762 3.8558145 657930
-1.764364 -0.086535923 3.8681242 657930
1.6724474 -0.086671934 3.8742034 657930
1.687816 -0.086473033 3.8653145 657930
1.7068131 -0.086513571 3.8543236 657930
-1.7860513 -0.062521383 3.8557038 657930
-1.7643917 -0.062499147 3.8681855 657930
1.6729854 -0.064518936 3.8739624 657930
1.6878428 -0.062453721 3.8653748 657930
1.7071118 -0.062628195 3.854228 657930
-1.7859251 -0.038338386 3.855854 657930
-1.7644193 -0.038461592 3.8682458 657930
1.6737845 -0.038514663 3.8735828 657930
1.6878694 -0.038433664 3.8654358 657930
1.7069975 -0.038323633 3.8543701 657930
-1.7859551 -0.012779654 3.8559182 657930
-1.7644489 -0.012820726 3.8683102 657930
1.6738127 -0.012838414 3.8736479 657930
1.6878977 -0.012811407 3.8655002 657930
1.7081614 -0.012535007 3.8537788 657930
-1.7859845 0.012779933 3.8559825 657930
-1.7644782 0.012821008 3.8683751 657930
1.6738409 0.012838699 3.873713 657930
1.6879261 0.012811692 3.8655648 657930
1.7083246 0.012772585 3.8537648 657930
-1.7860141 0.038340379 3.8560472 657930
-1.7645079 0.038463589 3.8684397 657930
1.673869 0.038516674 3.8737781 657930
1.6879549 0.03843566 3.8656299 657930
1.7083536 0.038318325 3.8538294 657930
-1.7861969 0.062526546 3.8560178 657930
-1.7645354 0.062504284 3.8684995 657930
1.6738955 0.062590554 3.8738396 657930
1.6879812 0.062458891 3.8656909 657930
1.7086123 0.062846251 3.8537574 657930
-1.7859302 0.086447559 3.8562474 657930
-1.7645627 0.086545773 3.8685603 657930
1.6739219 0.086665213 3.8739007 657930
1.6880074 0.086482912 3.8657513 657930
1.708187 0.086707346 3.8540795 657930
-2.0396817 -1.2844781 3.8893085 485639
1.9633121 -1.2841794 3.8876219 495623
-2.0396821 -1.2627245 3.8888102 26112
1.963312 -1.2621641 3.8878994 36352
-2.0396826 -1.2373431 3.8889093 26112
1.9633116 -1.2374761 3.8873429 36352
-2.0396831 -1.2123612 3.8887055 26112
1.9633119 -1.2127763 3.8876214 36352
-2.0396829 -1.187801 3.8892071 26112
1.9633118 -1.1875435 3.8876209 36352
-2.0396833 -1.162838 3.8888125 26112
1.9633123 -1.1622999 3.8878982 36352
-2.0396836 -1.1374537 3.8889112 26112
1.9633114 -1.1376263 3.8873427 36352
-2.0396841 -1.1124769 3.8887074 26112
1.9633116 -1.1123825 3.8876207 36352
-2.0396841 -1.0875103 3.8889124 26112
1.9633112 -1.0871496 3.8876204 36352
-2.0396841 -1.0625392 3.8891172 26112
1.9633116 -1.0624355 3.8878973 36352
-2.0396843 -1.0375642 3.8889129 26112
1.963311 -1.0377762 3.8873417 36352
-2.0396848 -1.0125928 3.8887088 26112
1.9633111 -1.0125253 3.8876193 36352
-2.039685 -0.98762053 3.8889134 26112
1.9633111 -0.98729247 3.8876197 36352
-2.039685 -0.96264446 3.8891194 26112
1.9633111 -0.96205997 3.8876193 36352
-2.0396855 -0.9376744 3.8889153 26112
1.963311 -0.93736404 3.8876188 36352
-2.0396857 -0.9127084 3.888711 26112
1.9633104 -0.91266817 3.887619 35840
-2.039691 -0.89920187 3.882782 26112
1.9633052 -0.89884329 3.8812335 158722
-1.7355686 -0.85817194 3.8822632 855309
-1.7149346 -0.85827518 3.8941531 921102
1.6237663 -0.8579303 3.8999145 657930
1.637974 -0.85820717 3.8916943 789516
1.6587368 -0.85830086 3.8796833 1052688
-1.7363883 -0.83724016 3.8818569 657930
-1.7150047 -0.83754653 3.8941786 657930
1.6237886 -0.83693779 3.8999679 657930
1.6383251 -0.83758157 3.8915579 657930
1.6587592 -0.83741742 3.8797371 657930
-1.7368524 -0.81243366 3.8816693 657930
-1.7152236 -0.81268054 3.8941317 657930
1.6380993 -0.81260484 3.8917668 657930
1.6590101 -0.81280458 3.8796694 657930
-1.7371635 -0.78752387 3.8815689 657930
-1.7150134 -0.78732729 3.8943341 657930
1.6379268 -0.78746402 3.8919466 657930
1.658814 -0.78761667 3.8798637 657930
-1.7366977 -0.76244432 3.881917 657930
-1.7147502 -0.76219743 3.8945649 657930
1.6381023 -0.76248568 3.8919241 657930
1.6587045 -0.76216602 3.8800073 657930
-1.736622 -0.73736531 3.8820412 657930
-1.7152141 -0.73780698 3.8943756 657930
1.6384323 -0.73767191 3.8918121 657930
1.6587564 -0.73726481 3.8800573 657930
-1.7369487 -0.71261495 3.8819315 657930
-1.7152371 -0.71292621 3.8944414 657930
1.6383549 -0.71253014 3.891938 657930
1.6591525 -0.7129342 3.8799052 657930
-1.7371243 -0.6877023 3.8819084 657930
-1.7151257 -0.68734294 3.8945873 657930
1.6378804 -0.68737692 3.8922915 657930
1.6589223 -0.68800408 3.8801172 657930
-1.737102 -0.66246331 3.8820028 657930
-1.7149153 -0.66197926 3.8947885 657930
1.6382099 -0.66256166 3.8921797 657930
1.6591343 -0.6620481 3.8800774 657930
-1.7367225 -0.63721102 3.8823009 657930
-1.7152799 -0.63758379 3.8946555 657930
1.63854 -0.63774925 3.8920677 657930
1.6599734 -0.6371277 3.8796711 657930
-1.7368631 -0.6122942 3.8822989 657930
-1.7153488 -0.61293411 3.8946953 657930
1.6384625 -0.61260259 3.8921926 657930
1.6604379 -0.61283588 3.8794804 657930
-1.7373097 -0.58771139 3.8821199 657930
-1.7152367 -0.5873453 3.8948402 657930
1.6374311 -0.58752662 3.8928688 657930
1.6597507 -0.58768815 3.8799574 657930
-1.7372144 -0.56278723 3.8822546 657930
-1.7150269 -0.56197476 3.8950415 657930
1.6368439 -0.56234676 3.8932881 657930
1.6590567 -0.56266671 3.8804383 657930
-1.737098 -0.5372166 3.8824029 657930
-1.7153913 -0.53758121 3.8949101 657930
1.6373249 -0.53782922 3.8930886 657930
1.6589411 -0.53714365 3.8805859 657930
-1.7367228 -0.5121128 3.8826993 657930
-1.7154607 -0.5129289 3.8949487 657930
1.6372726 -0.51274461 3.893198 657930
1.6589211 -0.51222855 3.8806765 657930
-1.737288 -0.48769855 3.8824511 657930
-1.7153488 -0.48733458 3.8950942 657930
1.6371537 -0.48711622 3.8933482 657930
1.6594814 -0.4879643 3.8804297 657930
-1.7374444 -0.46294388 3.8824396 657930
-1.715139 -0.4619574 3.8952961 657930
1.6367995 -0.46200612 3.8936336 657930
1.6591648 -0.46302459 3.8806925 657930
-1.7372109 -0.43752223 3.8826547 657930
-1.7156565 -0.43781379 3.8950748 657930
1.6375941 -0.43787292 3.8932514 657930
1.6591933 -0.43730849 3.880758 657930
-1.7370938 -0.41194361 3.8828044 657930
-1.7154313 -0.4131248 3.8952825 657930
1.6372341 -0.41294 3.8935382 657930
1.6589717 -0.41196921 3.8809674 657930
-1.7370113 -0.38716918 3.8829293 657930
-1.7154604 -0.38731101 3.8953474 657930
1.6372616 -0.38713771 3.8936048 657930
1.6593561 -0.38769174 3.8808219 657930
-1.737699 -0.36293206 3.8826113 657930
-1.7152504 -0.361927 3.8955495 657930
1.6369067 -0.36201853 3.8938885 657930
1.6594174 -0.36318284 3.8808641 657930
-1.7373234 -0.33781469 3.8829074 657930
-1.715768 -0.33778748 3.8953285 657930
1.6377017 -0.33789361 3.8935063 657930
1.6593018 -0.33765 3.8810124 657930
-1.7373527 -0.31208181 3.8829727 657930
-1.7159804 -0.31352857 3.8952839 657930
1.6373411 -0.31295148 3.8937938 657930
1.6593297 -0.31192943 3.8810771 657930
-1.7369772 -0.28695688 3.8832684 657930
-1.7168604 -0.28721967 3.8948603 657930
1.6373688 -0.28714591 3.8938594 657930
1.6590132 -0.28697246 3.8813398 657930
-1.7514625 -0.25685975 3.8750176 657930
-1.7378229 -0.26290014 3.8828583 657930
-1.716665 -0.26190591 3.8950534 657930
1.6370143 -0.26201773 3.8941441 657930
1.6597269 -0.26293695 3.8810031 657930
-1.7514844 -0.23759821 3.875066 657930
-1.7374361 -0.23809442 3.8831596 657930
-1.7171494 -0.23778406 3.8948503 657930
1.6383137 -0.23822224 3.8934679 657930
1.6594101 -0.23797832 3.8812654 657930
-1.7515137 -0.21191546 3.8751311 657930
-1.7374649 -0.21235809 3.8832252 657930
-1.7169434 -0.21300463 3.8950481 657930
1.6387472 -0.21290891 3.8932974 657930
1.659438 -0.21225449 3.881331 657930
-1.7515411 -0.18783711 3.8751919 657930
-1.7374947 -0.18662082 3.8832905 657930
-1.7169722 -0.18718904 3.8951139 657930
1.6387751 -0.18710494 3.8933637 657930
1.6594661 -0.18652984 3.8813961 657930
-1.7515686 -0.16375798 3.8752527 657930
-1.7375219 -0.1624914 3.8833513 657930
-1.716777 -0.16186866 3.8953068 657930
1.638456 -0.16206042 3.8936274 657930
1.6594924 -0.16241214 3.8814571 657930
-1.7515979 -0.13807276 3.8753173 657930
-1.7375492 -0.13836117 3.8834121 657930
-1.7172614 -0.13775046 3.8951044 657930
1.6391737 -0.13795973 3.8932889 657930
1.6595185 -0.13829371 3.8815186 657930
-1.7516272 -0.11238668 3.8753822 657930
-1.7375784 -0.11262144 3.883477 657930
-1.717055 -0.11296436 3.8953016 657930
1.6388547 -0.11291362 3.8935528 657930
1.6595467 -0.11256653 3.8815846 657930
-1.7516564 -0.086699732 3.875447 657930
-1.7376074 -0.086880818 3.8835418 657930
-1.7170841 -0.087145396 3.8953664 657930
1.6388826 -0.087106273 3.8936188 657930
1.6595744 -0.086838536 3.8816493 657930
-1.751684 -0.062617458 3.8755078 657930
-1.7376347 -0.062748246 3.8836033 657930
-1.716976 -0.061566912 3.8955114 657930
1.6385635 -0.06205336 3.893883 657930
1.6603737 -0.062389396 3.8812642 657930
-1.7517115 -0.038534407 3.8755689 657930
-1.737662 -0.038614906 3.8836637 657930
-1.7172889 -0.03741781 3.8954074 657930
1.6392807 -0.037959758 3.893544 657930
1.6609147 -0.03858868 3.8810267 657930
-1.7517407 -0.012844993 3.8756332 657930
-1.7376907 -0.012871824 3.8837287 657930
-1.717167 -0.012911021 3.8955562 657930
1.6389621 -0.012905231 3.8938076 657930
1.6609426 -0.01286309 3.881093 657930
-1.75177 0.012845278 3.8756981 657930
-1.7377201 0.012872112 3.8837943 657930
-1.717196 0.012911312 3.8956215 657930
1.6389899 0.012905518 3.8938739 657930
1.6609704 0.012863374 3.8811581 657930
-1.7517993 0.038536411 3.8757629 657930
-1.7377491 0.038616918 3.8838592 657930
-1.7173731 0.037419695 3.8955977 657930
1.639346 0.037757672 3.8937459 657930
1.6609985 0.038590711 3.8812234 657930
-1.7518266 0.062622614 3.8758237 657930
-1.7377764 0.062753439 3.8839195 657930
-1.7171133 0.061571911 3.8958235 657930
1.6387235 0.061860781 3.8941839 657930
1.6610249 0.062710866 3.8812852 657930
-1.7518543 0.086709589 3.8758843 657930
-1.7378041 0.086890742 3.883981 657930
-1.717279 0.087155364 3.8958092 657930
1.6390696 0.087116301 3.8940637 657930
1.661051 0.086831793 3.881346 657930
-2.0396614 -1.2845079 3.9137347 222979
1.9633311 -1.2845883 3.9101179 168962
-2.0396619 -1.2626234 3.9132986 26112
1.9633309 -1.2631302 3.9100146 37632
-2.0396616 -1.2375014 3.9139004 26112
1.963331 -1.2376112 3.9101183 37888
-2.0396621 -1.2123746 3.9135005 26112
1.9633307 -1.2120904 3.910223 37888
-2.0396624 -1.1872268 3.9137013 26112
1.9633306 -1.1873933 3.9101174 37888
-2.0396628 -1.1621073 3.9133005 26112
1.9633303 -1.1626979 3.9100137 37632
-2.0396624 -1.1373861 3.91381 26112
1.9633303 -1.1375723 3.9102225 37888
-2.0396631 -1.1122485 3.9136028 26112
1.96333 -1.1124755 3.9098048 37632
-2.0396636 -1.0871146 3.9133964 26112
1.9633299 -1.0877755 3.9103329 37888
-2.0396636 -1.0628002 3.9138112 26112
1.96333 -1.0626601 3.9101179 37888
-2.0396638 -1.0376662 3.9136052 26112
1.9633296 -1.0375488 3.9099021 37632
-2.0396643 -1.0125364 3.9133985 26112
1.9633296 -1.012444 3.9101174 37888
-2.0396645 -0.98740554 3.9136059 26112
1.9633298 -0.98733497 3.9103329 37632
-2.0396645 -0.96227086 3.9138131 26112
1.9633294 -0.96222532 3.9101164 37632
-2.0396652 -0.93754196 3.9133058 26112
1.9633293 -0.93711948 3.9099011 37632
-2.0396652 -0.91363472 3.9136066 24832
1.9633291 -0.91438633 3.9096184 37632
-1.7033374 -0.85813314 3.9008365 657930
-1.6878251 -0.85831922 3.9097755 855309
-1.6680914 -0.85897624 3.921144 1052688
1.5895169 -0.85876924 3.919724 986895
1.6106563 -0.85833001 3.9074962 921102
-1.7033606 -0.83713567 3.9008894 657930
-1.6878725 -0.83759755 3.9098134 657930
-1.668449 -0.83791173 3.9210045 657930
1.5899017 -0.8376894 3.9195678 657930
1.6109619 -0.83766031 3.9073863 657930
-1.7033023 -0.81205583 3.9010034 657930
-1.6882035 -0.81266826 3.9097013 657930
-1.6683429 -0.81224215 3.9211471 657930
1.5895414 -0.81239539 3.9198568 657930
1.6120673 -0.81251234 3.9068251 657930
-1.7035012 -0.78791374 3.9009655 657930
-1.6876115 -0.78756988 3.9101245 657930
-1.6681587 -0.78720939 3.921334 657930
1.5898105 -0.78759927 3.91978 657930
1.6118393 -0.78743529 3.907038 657930
-1.7034431 -0.76283228 3.9010787 657930
-1.6877532 -0.76247424 3.9101193 657930
-1.6686028 -0.76291037 3.9211543 657930
1.5900803 -0.76280516 3.9197032 657930
1.6121703 -0.76252371 3.9069254 657930
-1.7034719 -0.73698604 3.9011445 657930
-1.6880838 -0.73754466 3.9100089 657930
-1.668424 -0.73755169 3.9213378 657930
1.5898631 -0.73728317 3.919909 657930
1.6125028 -0.73761481 3.9068117 657930
-1.7034987 -0.71275431 3.9012055 657930
-1.6882266 -0.71245134 3.9100068 657930
-1.6682462 -0.71219021 3.9215221 657930
1.5895855 -0.71221703 3.9201493 657930
1.6119049 -0.71252769 3.9072382 657930
-1.7035255 -0.68852186 3.9012671 657930
-1.6876335 -0.68733972 3.910429 657930
-1.6686896 -0.68789333 3.9213431 657930
1.5902127 -0.68791193 3.9198649 657930
1.6120461 -0.68745059 3.9072356 657930
-1.7035543 -0.662673 3.9013333 657930
-1.688014 -0.66257262 3.9102867 657930
-1.6685053 -0.66285414 3.9215293 657930
1.5899411 -0.66261292 3.9201016 657930
1.6125004 -0.6627062 3.9070511 657930
-1.703583 -0.6368233 3.9013989 657930
-1.6883961 -0.63780892 3.9101474 657930
-1.6685337 -0.63687056 3.9215953 657930
1.5897244 -0.63708222 3.9203081 657930
1.6124011 -0.63762474 3.9071894 657930
-1.7036098 -0.61258847 3.9014604 657930
-1.6880696 -0.61237454 3.9104152 657930
-1.66856 -0.61251038 3.9216571 657930
1.5902511 -0.61277312 3.9200811 657930
1.6119224 -0.61236584 3.907546 657930
-1.7036368 -0.5883528 3.9015222 657930
-1.6876885 -0.58709508 3.9107156 657930
-1.6685867 -0.58814919 3.92172 657930
1.590019 -0.58793545 3.9202945 657930
1.6122539 -0.58745575 3.9074335 657930
-1.7036655 -0.56250066 3.9015875 657930
-1.6883835 -0.56266737 3.9103928 657930
-1.668615 -0.56216323 3.9217865 657930
1.5899025 -0.56217712 3.9204431 657930
1.6127441 -0.56271666 3.9072294 657930
-1.7036941 -0.53664756 3.9016538 657930
-1.6882998 -0.5377233 3.910521 657930
-1.6688782 -0.53837276 3.9217105 789516
1.5904473 -0.53790647 3.9202054 657930
1.6123583 -0.53745598 3.9075317 657930
-1.703721 -0.51240951 3.901715 657930
-1.6912544 -0.51267141 3.9088979 657930
1.5915539 -0.51289821 3.9196453 789516
1.6119725 -0.5121901 3.9078357 657930
-1.703748 -0.48817071 3.9017773 657930
-1.692355 -0.48788059 3.9083424 657930
1.5914406 -0.48717687 3.9197919 855309
1.6126719 -0.487786 3.9075089 657930
-1.7037766 -0.46231514 3.9018424 657930
-1.6921284 -0.46311021 3.9085519 657930
1.5912277 -0.46225098 3.9199944 921102
1.612586 -0.46285802 3.9076381 657930
-1.7038053 -0.43645868 3.9019079 657930
-1.6921566 -0.43720916 3.9086182 657930
1.5917214 -0.4379639 3.9197862 855309
1.6124643 -0.43711656 3.9077897 657930
-1.7038324 -0.41221747 3.9019694 657930
-1.6918855 -0.41219682 3.9088545 657930
1.5915192 -0.41249669 3.9199846 855309
1.612067 -0.41216421 3.9080997 657930
-1.7038591 -0.38797557 3.9020314 657930
-1.692505 -0.38798389 3.9085743 657930
1.5913171 -0.38702595 3.9201827 921102
1.6129297 -0.38793981 3.9076779 657930
-1.7027084 -0.36168754 3.9027784 657930
-1.6911285 -0.36302969 3.9094462 657930
1.5918102 -0.36274174 3.9199736 855309
1.6125435 -0.36266261 3.9079819 657930
-1.7025115 -0.33681837 3.902971 657930
-1.6909724 -0.33689937 3.9096196 657930
1.5915971 -0.33780909 3.9201767 855309
1.6123024 -0.33706725 3.9082019 657930
-1.7033747 -0.31178039 3.9025528 657930
-1.6909992 -0.31260872 3.909682 657930
1.5916243 -0.31182909 3.9202435 855309
1.6127213 -0.31265372 3.9080367 657930
-1.7039696 -0.28776732 3.9022868 657930
-1.6910256 -0.28831723 3.9097435 657930
1.5916498 -0.28747201 3.920306 855309
1.6127714 -0.28805131 3.9080861 657930
-1.703998 -0.26190504 3.9023521 657930
-1.6910545 -0.26240548 3.9098089 657930
1.5916749 -0.26311418 3.9203682 855309
1.6126493 -0.26230007 3.9082379 657930
-1.704025 -0.23765834 3.9024146 657930
-1.6902431 -0.23623545 3.9103603 855309
1.5917021 -0.23713161 3.920435 855309
1.6122637 -0.23700805 3.9085407 657930
1.627039 -0.23104922 3.9000132 657930
-1.7040516 -0.21341081 3.9024754 657930
-1.6899666 -0.21249364 3.9105957 1052688
1.5917275 -0.21277219 3.9204981 855309
1.6131252 -0.21279974 3.9081194 657930
1.6270578 -0.21327864 3.9000585 657930
-1.7040807 -0.18754598 3.9025414 657930
-1.6898383 -0.18794031 3.9107463 1052688
1.5917524 -0.18841194 3.9205611 855309
1.6127281 -0.18782894 3.9084287 657930
1.6270854 -0.18742986 3.9001245 657930
-1.7041092 -0.16168031 3.9026072 657930
-1.6898664 -0.16202028 3.910814 1052688
1.5917802 -0.16242687 3.9206274 855309
1.6127552 -0.16192424 3.9084945 657930
1.627113 -0.1615802 3.9001908 657930
-1.7041363 -0.13743043 3.9026687 657930
-1.6898935 -0.13771941 3.9108751 1052688
1.5915774 -0.13693941 3.9208255 921102
1.6127809 -0.13763778 3.9085572 657930
1.6271389 -0.13734534 3.9002528 657930
-1.704163 -0.11317978 3.9027309 657930
-1.6899204 -0.11341777 3.9109364 1052688
1.5920708 -0.11266444 3.9206171 855309
1.6128067 -0.11335055 3.9086201 657930
1.6271647 -0.11310972 3.9003146 657930
-1.704192 -0.087311588 3.9027956 657930
-1.6899489 -0.087495171 3.9110029 1052688
1.5918578 -0.087714784 3.9208195 855309
1.612834 -0.087443352 3.9086852 657930
1.6271923 -0.087257549 3.9003806 657930
-1.7042205 -0.061442509 3.9028623 657930
-1.6899776 -0.061571714 3.9110692 1052688
1.5918851 -0.061726253 3.920886 855309
1.6128619 -0.061535228 3.908752 657930
1.6272199 -0.061404482 3.9004469 657930
-1.7042475 -0.037189465 3.9029236 657930
-1.690004 -0.037267666 3.9111304 1052688
1.5919104 -0.037361223 3.9209483 855309
1.6128874 -0.037245598 3.9088144 657930
1.6272457 -0.037166454 3.9005089 657930
-1.7042743 -0.012935644 3.9029849 657930
-1.6900307 -0.012962846 3.9111917 1052688
1.5919358 -0.012995391 3.9210117 789516
1.6129125 -0.012955171 3.9088771 657930
1.6272715 -0.012927643 3.9005706 657930
-1.704303 0.012935933 3.9030504 657930
-1.6900594 0.012963137 3.911258 1052688
1.5919629 0.01299568 3.921078 657930
1.6129404 0.012955464 3.9089425 657930
1.6272992 0.012927933 3.9006367 657930
-1.7043302 0.03719132 3.9031119 657930
-1.6900862 0.037269533 3.91132 1052688
1.5919886 0.037363108 3.92114 657930
1.6129658 0.037247464 3.9090056 657930
1.6273251 0.037168324 3.9006989 657930
-1.7043566 0.061447479 3.9031737 657930
-1.6901128 0.061576713 3.9113822 986895
1.5927784 0.061157104 3.920759 657930
1.6129917 0.061540268 3.9090676 657930
1.6273508 0.061409499 3.9007609 657930
-1.7043855 0.087321579 3.903239 657930
-1.690141 0.087505221 3.911448 855309
1.5933572 0.087707914 3.9205081 657930
1.613019 0.08745344 3.9091334 657930
1.6273785 0.087267585 3.9008267 657930
-2.0396399 -1.2845757 3.9390159 485639
1.9633526 -1.2845842 3.936002 236035
-2.0396407 -1.262544 3.9385047 26112
1.9633527 -1.2625575 3.9362497 39168
-2.0396409 -1.2372383 3.9387088 26112
1.9633524 -1.2376944 3.9361429 39168
-2.0396414 -1.2123619 3.9386072 26112
1.9633523 -1.2128334 3.936038 39168
-2.0396416 -1.1874877 3.9385076 26112
1.9633524 -1.1875432 3.9362493 39168
-2.0396419 -1.1625887 3.9383996 26112
1.963352 -1.1622739 3.9358256 39168
-2.0396419 -1.1377081 3.9389138 26112
1.9633523 -1.1374162 3.9363606 39168
-2.0396426 -1.1124308 3.938509 26112
1.9633522 -1.1125288 3.9362483 39168
-2.0396428 -1.087534 3.938401 26112
1.9633517 -1.0872678 3.9358249 39168
-2.0396423 -1.0626436 3.9389155 26112
1.9633522 -1.0624 3.9363606 39168
-2.0396428 -1.0373741 3.9385102 26112
1.9633521 -1.0375146 3.9362478 39168
-2.039643 -1.0124793 3.9384017 26112
1.9633516 -1.0122616 3.9358242 39168
-2.0396433 -0.98758388 3.9385107 26112
1.9633518 -0.98738366 3.9363596 39168
-2.0396433 -0.96231258 3.9389162 26112
1.9633515 -0.96292359 3.9359231 39168
-2.0396435 -0.93742442 3.9384027 26112
1.9633512 -0.93764752 3.9361413 39168
-2.0396445 -0.91615081 3.9380414 25600
1.9633511 -0.91602433 3.9359844 37888
-1.656533 -0.85755765 3.9278092 657930
-1.6381224 -0.85840011 3.9384143 921102
-1.6210022 -0.85875547 3.9482787 789516
1.5433906 -0.85834849 3.9464078 657930
1.561869 -0.85845208 3.9357181 921102
1.5778837 -0.85726273 3.9264579 657930
-1.6554701 -0.8365007 3.9284883 657930
-1.6375126 -0.83788759 3.9388304 657930
-1.621025 -0.83750254 3.9483337 657930
1.5434122 -0.83710581 3.9464624 657930
1.5623823 -0.8375935 3.9354877 657930
1.5779039 -0.8377533 3.9265084 657930
-1.6554835 -0.81285262 3.928555 657930
-1.6371462 -0.81237537 3.9391239 657930
-1.6209309 -0.81239891 3.9484675 657930
1.5434372 -0.81259423 3.9465258 657930
1.5616847 -0.81249559 3.935971 657930
1.5779294 -0.81336582 3.9265716 657930
-1.6552982 -0.78777331 3.9287426 657930
-1.6365216 -0.78735018 3.9395635 657930
-1.621454 -0.78880137 3.948241 657930
1.5434618 -0.788082 3.9465897 657930
1.5620711 -0.78756195 3.9358268 657930
1.5779562 -0.78735149 3.9266381 657930
-1.6551917 -0.76205099 3.928885 657930
-1.6371675 -0.76271528 3.9392686 657930
-1.6224273 -0.7621485 3.9477646 657930
1.5434885 -0.76193464 3.9466574 657930
1.5624592 -0.7626316 3.9356816 657930
1.5778942 -0.76210493 3.9267542 657930
-1.6554977 -0.73768651 3.9287863 657930
-1.6371109 -0.7375204 3.9393823 657930
-1.6224533 -0.73762757 3.9478278 657930
1.5435133 -0.73742086 3.9467213 657930
1.5617615 -0.73752332 3.9361651 657930
1.5780956 -0.73780382 3.9267154 657930
-1.6553787 -0.712937 3.9289341 657930
-1.6366018 -0.71230775 3.9397557 657930
-1.6224791 -0.71310586 3.9478912 657930
1.5435383 -0.712906 3.9467847 657930
1.5621481 -0.71259105 3.9360211 657930
1.5780338 -0.71255553 3.9268312 657930
-1.6552725 -0.68721068 3.9290764 657930
-1.6372473 -0.6876772 3.9394622 657930
-1.622507 -0.68694854 3.9479585 657930
1.5434351 -0.68713802 3.9469259 657930
1.5625359 -0.68766183 3.9358759 657930
1.5780607 -0.6865378 3.9268982 657930
-1.6555785 -0.6628471 3.928978 657930
-1.6371908 -0.66247898 3.9395747 657930
-1.6225327 -0.66242522 3.9480212 657930
1.5437268 -0.66267699 3.946835 657930
1.561928 -0.66238278 3.9363067 657930
1.578086 -0.6621455 3.9269614 657930
-1.6554596 -0.63809347 3.9291253 657930
-1.6366817 -0.63725799 3.9399486 657930
-1.6225586 -0.63790119 3.9480846 657930
1.5436145 -0.63772273 3.9469795 657930
1.5621369 -0.63744718 3.9362655 657930
1.5781113 -0.63775229 3.9270241 657930
-1.6554874 -0.61205918 3.9291921 657930
-1.6374884 -0.61282116 3.9395616 657930
-1.6225864 -0.61174136 3.9481516 657930
1.5435113 -0.61195058 3.9471214 657930
1.5626127 -0.61268514 3.9360693 657930
1.5781382 -0.61173201 3.9270914 657930
-1.6553689 -0.58730197 3.9293387 657930
-1.6371224 -0.58760411 3.9398525 657930
-1.6226122 -0.58721554 3.9482148 657930
1.5438032 -0.58749026 3.9470305 657930
1.5620053 -0.58739632 3.9365015 657930
1.5781635 -0.58733732 3.9271543 657930
-1.6556748 -0.56293923 3.9292407 657930
-1.6367618 -0.5622009 3.9401412 657930
-1.6226382 -0.56268919 3.948278 657930
1.5436906 -0.56253189 3.9471743 657930
1.5622138 -0.56246054 3.93646 657930
1.5781888 -0.56294167 3.9272172 657930
-1.6557451 -0.5407269 3.9292703 855309
-1.6378285 -0.54268068 3.939589 723723
-1.622659 -0.5430674 3.9483283 986895
1.5437104 -0.5429157 3.9472253 657930
1.5635582 -0.54079437 3.9357512 789516
1.5789497 -0.53613895 3.9268625 789516
1.5854378 0.06666971 3.9250228 657930
1.5854598 0.087810107 3.9250774 657930
-2.039619 -1.2846066 3.9640734 354565
1.9633751 -1.2841487 3.9626627 105985
-2.0396194 -1.2628555 3.9639337 92161
1.9633749 -1.2624037 3.9625173 40448
-2.0396199 -1.23782 3.9638326 92161
1.9633747 -1.2373755 3.9624102 40448
-2.0396197 -1.2123499 3.9640381 92161
1.9633745 -1.2123224 3.9622953 40448
-2.0396202 -1.1873145 3.9639351 92161
1.9633747 -1.1877224 3.9627373 40448
-2.0396204 -1.1622807 3.963834 91905
1.9633747 -1.1626667 3.9626231 40448
-2.0396206 -1.1372223 3.9637253 92161
1.9633745 -1.13764 3.9625139 40448
-2.0396206 -1.1126003 3.9641511 92161
1.9633743 -1.112615 3.9624081 40448
-2.0396218 -1.0879588 3.9637263 92161
1.9633737 -1.0875658 3.9622934 40448
-2.0396214 -1.0625088 3.9639394 92161
1.9633743 -1.0629519 3.9627354 40448
-2.0396211 -1.0370549 3.9641521 92161
1.9633737 -1.0375013 3.9625142 40448
-2.0396223 -1.0124214 3.9637282 92161
1.9633733 -1.012055 3.9622927 40448
-2.0396221 -0.98778605 3.9641533 91905
1.9633738 -0.98743284 3.9627349 40448
-2.0396228 -0.96273589 3.9636323 91905
1.9633732 -0.96280903 3.9622922 40448
-2.0396225 -0.93730205 3.9640446 91905
1.9633733 -0.93736351 3.9625132 40448
-2.0396228 -0.9183839 3.9637296 91137
1.9633726 -0.91838366 3.9615655 40448
-1.6091179 -0.85834152 3.9551291 1052688
-1.5876863 -0.85848218 3.9674768 921102
1.4977567 -0.85750711 3.9728081 657930
1.512405 -0.85839039 3.9643323 789516
1.5312697 -0.85853821 3.9534183 1118481
-1.6091851 -0.83760178 3.9551558 657930
-1.5882086 -0.8376202 3.9672425 657930
1.4977763 -0.83776718 3.9728599 657930
1.5127184 -0.83741981 3.9642167 657930
1.5316069 -0.83762419 3.9532905 657930
-1.609264 -0.81249529 3.9551904 657930
-1.5874485 -0.81248283 3.9677608 657930
1.4978006 -0.81309187 3.9729242 657930
1.5123883 -0.81242698 3.9644873 657930
1.5314152 -0.81238842 3.953481 657930
-1.6092899 -0.78698838 3.9552565 657930
-1.5879267 -0.78751338 3.9675646 657930
1.4978266 -0.78677052 3.9729929 657930
1.5130461 -0.78763402 3.9641857 657930
1.5312237 -0.78714961 3.9536722 657930
-1.6108012 -0.76279193 3.9544623 657930
-1.5879856 -0.76254225 3.9676106 657930
1.4978507 -0.76209342 3.973057 657930
1.5124069 -0.76244843 3.964637 657930
1.5316765 -0.76264954 3.9534883 657930
-1.610383 -0.73749715 3.9547837 657930
-1.5876085 -0.73739851 3.9679079 657930
1.497875 -0.73741555 3.9731216 657930
1.5127003 -0.73746502 3.9645462 657930
1.5314909 -0.73708236 3.9536769 657930
-1.6104513 -0.7124669 3.9548247 657930
-1.5883611 -0.71260226 3.9675529 657930
1.4978992 -0.71273679 3.973186 657930
1.5129944 -0.71248388 3.9644535 657930
1.5315156 -0.71252459 3.9537401 657930
-1.6108259 -0.68769413 3.9546874 657930
-1.5875776 -0.68761039 3.9680839 657930
1.4979236 -0.68805724 3.9732504 657930
1.5123549 -0.68728775 3.9649048 657930
1.5315404 -0.68796575 3.9538045 657930
-1.6103606 -0.66238797 3.9550352 657930
-1.588056 -0.66264486 3.9678874 657930
1.4979492 -0.66173154 3.9733191 657930
1.5131761 -0.66269028 3.9645081 657930
1.5314292 -0.66207588 3.9539514 657930
-1.6099207 -0.63732111 3.9553688 657930
-1.5874633 -0.63790208 3.9683077 657930
1.4979736 -0.63705051 3.9733834 657930
1.5126483 -0.63749361 3.9648941 657930
1.5317397 -0.6375584 3.9538493 657930
-1.6094774 -0.61272889 3.9557023 657930
-1.5869358 -0.61276597 3.9686923 657930
1.4979981 -0.61236852 3.973448 657930
1.5126235 -0.61231399 3.9649873 657930
1.5316161 -0.61264735 3.9539998 657930
-1.6090299 -0.58730435 3.9560401 657930
-1.5884043 -0.58773547 3.9679251 657930
1.4980223 -0.58768576 3.9735124 657930
1.5132006 -0.58752924 3.9647331 657930
1.5314245 -0.58739567 3.954191 657930
-1.6097196 -0.56277716 3.9557209 657930
-1.587926 -0.56243432 3.9682808 657930
1.4980466 -0.56300223 3.9735773 657930
1.5125238 -0.56231523 3.9652042 657930
1.5318776 -0.56290174 3.9540071 657930
-1.6100131 -0.5452038 3.9556088 855309
-1.5886408 -0.54605204 3.9679215 657930
1.4980626 -0.5465461 3.9736199 657930
1.5147628 -0.54543203 3.9639628 921102
1.5316855 -0.54387206 3.954179 986895
-2.0395975 -1.2842518 3.9895895 421382
1.9633975 -1.2841408 3.9892449 172546
-2.0395977 -1.2623594 3.9894872 224259
1.9633971 -1.2622485 3.9891381 41472
-2.0395982 -1.2371358 3.9893758 224259
1.963397 -1.2374456 3.9893618 41472
-2.039598 -1.2123654 3.9898071 224259
1.9633969 -1.2126689 3.9891379 41472
-2.0395987 -1.1875535 3.9893773 224259
1.9633962 -1.1874474 3.9890211 41472
-2.0395985 -1.1627778 3.9898086 224259
1.9633967 -1.1626788 3.98947 41472
-2.0395989 -1.1375531 3.9896991 224259
1.9633964 -1.1374547 3.9893539 41472
-2.0395994 -1.1123575 3.9895937 224259
1.9633963 -1.1126838 3.9891284 41472
-2.0395999 -1.0871634 3.9894915 224259
1.9633964 -1.0878725 3.9893534 41472
-2.0396001 -1.0619451 3.9893796 224259
1.963396 -1.0622733 3.9889185 41472
-2.0395999 -1.0371556 3.9898109 224259
1.9633961 -1.0370665 3.9894686 41472
-2.0396004 -1.0123627 3.9893811 224259
1.9633958 -1.012271 3.9890203 41472
-2.0396001 -0.98756784 3.9898114 224259
1.963396 -0.98748285 3.9894686 41472
-2.0396008 -0.96278059 3.9893816 224259
1.9633956 -0.96269298 3.9890196 41472
-2.0396006 -0.93798012 3.9898124 224259
1.963396 -0.93789893 3.9894679 41472
-2.0396025 -0.92053437 3.9879839 221955
1.9633949 -0.92138422 3.9885707 38400
-1.562178 -0.85859531 3.9821758 986895
-1.5407017 -0.85889018 3.9945514 921102
1.4638017 -0.85843801 3.9924471 789516
1.4853432 -0.85878122 3.9799848 986895
-1.5626675 -0.83753413 3.981961 657930
-1.5405757 -0.83761615 3.9946907 657930
1.463466 -0.83749336 3.992708 657930
1.4857382 -0.83737701 3.9798243 657930
-1.5619466 -0.81242162 3.982456 657930
-1.540748 -0.81257695 3.9946709 657930
1.4640493 -0.81251979 3.9924498 657930
1.4853017 -0.81216168 3.9801581 657930
-1.5627689 -0.78770363 3.9820616 657930
-1.5409212 -0.78753871 3.9946511 657930
1.4637517 -0.78753227 3.9927015 657930
1.4859459 -0.7874772 3.9798636 657930
-1.5621239 -0.76258665 3.9825125 657930
-1.5404865 -0.76222432 3.994982 657930
1.4638938 -0.76255161 3.9926989 657930
1.4853562 -0.76248336 3.9802842 657930
-1.5624182 -0.73749095 3.9824224 657930
-1.5411302 -0.73745233 3.9946899 657930
1.4641916 -0.73739249 3.9926069 657930
1.4859998 -0.73780185 3.9799886 657930
-1.5627129 -0.71239734 3.9823334 657930
-1.540542 -0.71235931 3.9951088 657930
1.463535 -0.71220368 3.9930665 657930
1.485564 -0.71257746 3.9803224 657930
