# .PCD v0.7 - Point Cloud Data file format
VERSION 0.7
FIELDS x y z rgb
SIZE 4 4 4 4
TYPE F F F U
COUNT 1 1 1 1
WIDTH 202
HEIGHT 1
VIEWPOINT 0 0 0 1 0 0 0
POINTS 202
DATA ascii
0.82458025 -1.3126372 4.7502508 26112
0.83800936 -1.3123591 4.7579894 26112
0.85725045 -1.3124651 4.7690773 26112
0.82459593 -1.2870781 4.7503409 26112
0.83787858 -1.2875488 4.7579932 26112
0.85779512 -1.2877553 4.7694697 26112
0.82461041 -1.2634841 4.7504239 26112
0.8373462 -1.2623565 4.7577667 26112
0.85754639 -1.2626044 4.7694058 26112
0.82462603 -1.237923 4.7505145 26112
0.83805627 -1.2375233 4.7582545 26112
0.85729825 -1.2374549 4.7693424 26112
0.82464188 -1.2123612 4.7506051 26112
0.8379252 -1.2127115 4.7582583 26112
0.85784322 -1.2127377 4.7697353 26112
0.82465625 -1.1887647 4.7506886 26112
0.83739281 -1.1875213 4.7580318 26112
0.85759437 -1.1875862 4.7696719 26112
0.82467204 -1.1632007 4.7507787 26112
0.8381027 -1.1626791 4.7585196 26112
0.85734612 -1.1624361 4.7696095 26112
0.82468766 -1.1376359 4.7508693 26112
0.83783501 -1.1374779 4.7584457 26112
0.85789102 -1.1377113 4.7700014 26112
0.8247034 -1.1120701 4.7509589 26112
0.83756804 -1.1122786 4.7583723 26112
0.85764223 -1.1125596 4.7699389 26112
0.82471913 -1.0865033 4.75105 26112
0.838278 -1.0874262 4.7588601 26112
0.85739386 -1.0874091 4.7698755 26112
0.8247335 -1.0629023 4.7511334 26112
0.83774471 -1.0622381 4.7586336 26112
0.85793883 -1.0626768 4.770268 26112
0.82474917 -1.0373336 4.751224 26112
0.83761466 -1.0374254 4.7586379 26112
0.85769016 -1.0375245 4.770205 26112
0.82476491 -1.011764 4.7513142 26112
0.83832455 -1.0125642 4.7591252 26112
0.85744196 -1.0123738 4.7701421 26112
0.82477933 -0.98816043 4.7513976 26112
0.83779144 -0.98737806 4.7588983 26112
0.85798675 -0.98763394 4.7705345 26112
0.82479513 -0.96258909 4.7514882 26112
0.83766121 -0.96256405 4.7589016 26112
0.85773796 -0.96248126 4.7704706 26112
0.82480717 -0.942918 4.7515578 24064
0.83685821 -0.94528079 4.7584944 24576
0.85642546 -0.94732064 4.769763 24832
0.87068355 -1.4287117 4.7764478 2192417
0.88915527 -1.4281492 4.7870932 945166
0.90695649 -1.427677 4.7973523 26112
0.87069374 -1.4128977 4.776504 26112
0.88795972 -1.4126049 4.7864537 26112
0.90605217 -1.412046 4.7968807 26112
0.87088001 -1.3881397 4.7766895 26112
0.88891131 -1.3875301 4.7870817 26112
0.90624046 -1.3871831 4.7970691 26112
0.87055641 -1.362536 4.7765841 26112
0.88845986 -1.362427 4.7869015 26112
0.9062565 -1.3633589 4.7971539 26112
0.8707425 -1.3377763 4.7767711 26112
0.88829648 -1.3376602 4.7868862 26112
0.9062739 -1.3375481 4.797246 26112
0.87092853 -1.3130141 4.776957 26112
0.88866436 -1.3125682 4.7871785 26112
0.90629131 -1.3117365 4.797338 26112
0.87060505 -1.2874105 4.7768512 26112
0.88856959 -1.2874696 4.7872033 26112
0.90630746 -1.2879096 4.7974238 26112
0.8707912 -1.2626466 4.7770376 26112
0.88829213 -1.2627013 4.7871232 26112
0.90649569 -1.2630385 4.7976108 26112
0.87097746 -1.2378799 4.7772236 26112
0.88854307 -1.2376035 4.7873464 26112
0.90616995 -1.2373254 4.7975054 26112
0.87065381 -1.2122766 4.7771192 26112
0.88879293 -1.212503 4.787571 26112
0.9063583 -1.2124521 4.7976923 26112
0.87083989 -1.1875081 4.7773051 26112
0.8883419 -1.1874043 4.7873907 26112
0.90654665 -1.1875765 4.7978802 26112
0.87102598 -1.1627374 4.7774911 26112
0.88829237 -1.1626352 4.7874413 26112
0.90622079 -1.1618637 4.7977743 26112
0.87070239 -1.1371343 4.7773862 26112
0.88907641 -1.1378543 4.787972 26112
0.9064092 -1.1369861 4.7979622 26112
0.87088865 -1.1123616 4.7775722 26112
0.88862491 -1.1127558 4.7877903 26112
0.9064253 -1.1131531 4.7980471 26112
0.87107474 -1.0875864 4.7777586 26112
0.88817447 -1.0876607 4.7876115 26112
0.90644264 -1.087333 4.7981391 26112
0.87075108 -1.0619836 4.7776532 26112
0.8891263 -1.0625374 4.78824 26112
0.90646005 -1.0615119 4.7982316 26112
0.87093729 -1.0372064 4.7778392 26112
0.88867468 -1.0374401 4.7880597 26112
0.9064762 -1.0376761 4.7983165 26112
0.87095267 -1.0134715 4.7779236 26112
0.88822424 -1.012346 4.787879 26112
0.90666461 -1.0127904 4.7985044 26112
0.8709693 -0.98775774 4.7780147 26112
0.88900852 -0.9875474 4.7884111 26112
0.90633881 -0.98707795 4.7983985 26112
0.87098598 -0.96204299 4.7781062 26112
0.88840622 -0.96377921 4.7881393 26112
0.90652579 -0.96417701 4.7985792 25344
0.87099493 -0.94819617 4.7781558 151298
0.87763482 -0.948955 4.7819796 342021
0.91648448 -1.4282492 4.8028412 1142033
0.93755609 -1.428269 4.8149829 879373
0.95330817 -1.4289629 4.8240581 26112
0.91738957 -1.4128971 4.803411 26112
0.93756938 -1.4123273 4.8150411 26112
0.95331949 -1.4129913 4.8241153 26112
0.91763037 -1.387687 4.8036304 26112
0.93776846 -1.3874208 4.8152356 26112
0.95333791 -1.3870367 4.8242087 26112
0.91718894 -1.3619031 4.8034582 26112
0.93760318 -1.362507 4.8152199 26112
0.9533549 -1.3630776 4.8242946 26112
0.91744107 -1.3373524 4.8036819 26112
0.93743885 -1.337594 4.8152046 26112
0.95337337 -1.337121 4.8243876 26112
0.91769332 -1.3127986 4.8039055 26112
0.93763876 -1.3126841 4.8153987 26112
0.95339173 -1.3111634 4.824481 26112
0.91725177 -1.287016 4.8037324 26112
0.93789232 -1.2874398 4.8156257 26112
0.95340872 -1.2872016 4.8245668 26112
0.91749263 -1.2617993 4.8039522 26112
0.93761259 -1.2625239 4.8155432 26112
0.95342571 -1.263239 4.8246531 26112
0.91750908 -1.2379386 4.8040371 26112
0.93721783 -1.2376099 4.8153954 26112
0.95344412 -1.2372786 4.8247461 26112
0.91774988 -1.2127173 4.804256 26112
0.93818164 -1.2123601 4.816031 26112
0.9534626 -1.2113172 4.8248391 26112
0.91730839 -1.1869364 4.8040838 26112
0.93778628 -1.1874437 4.8158827 26112
0.95347959 -1.1873519 4.8249254 26112
0.91756058 -1.1623743 4.8043075 26112
0.93750644 -1.1625286 4.8157997 26112
0.95349085 -1.1713746 4.8249826 26112
0.91781294 -1.1378093 4.8045311 26112
0.93745708 -1.1376121 4.8158507 26112
0.91737139 -1.1120294 4.8043585 26112
0.93825108 -1.1126814 4.8163886 26112
0.91761231 -1.0868015 4.8045769 26112
0.93779516 -1.0874352 4.8162045 26112
0.91762853 -1.0629346 4.8046627 26112
0.93734038 -1.062192 4.8160233 26112
0.91786939 -1.037702 4.8048816 26112
0.93813455 -1.0372524 4.8165612 26112
0.91742796 -1.011924 4.8047094 26112
0.93802994 -1.0126634 4.8165784 26112
0.91768008 -0.98735058 4.8049331 26112
0.93786472 -0.98774368 4.8165636 26112
0.91737515 -0.96600109 4.8048248 24832
0.93697977 -0.96849763 4.8161149 25600
0.96363413 -1.4284389 4.8300099 1273363
0.97592282 -1.4288151 4.8370895 26112
0.96488655 -1.4123819 4.8307829 26112
0.97593451 -1.4128004 4.8371472 26112
0.96472341 -1.3874009 4.8307681 26112
0.97595334 -1.3867756 4.8372407 26112
0.96456045 -1.3624198 4.8307543 26112
0.9759708 -1.3627518 4.8373275 26112
0.96439767 -1.33744 4.830739 26112
0.97598833 -1.3387271 4.8374138 26112
0.96468657 -1.3129307 4.8309836 26112
0.97600716 -1.3126996 4.8375077 26112
0.96505249 -1.287913 4.831274 26112
0.97602606 -1.2866709 4.8376012 26112
0.96463233 -1.2624477 4.8311133 26112
0.97604352 -1.2626437 4.837688 26112
0.96446943 -1.2374663 4.8310995 26112
0.97606093 -1.2386154 4.8377743 26112
0.96475834 -1.21295 4.8313432 26112
0.97607988 -1.2125838 4.8378677 26112
0.96512419 -1.1879241 4.8316336 26112
0.97609884 -1.1865513 4.8379617 26112
0.96298712 -1.1616368 4.8304858 26112
0.97611624 -1.1625203 4.8380485 26112
0.96226174 -1.13706 4.8301458 26112
0.97613376 -1.1384887 4.8381348 26112
0.96257079 -1.1126546 4.8304019 26112
0.97615272 -1.1124532 4.8382287 26112
0.96301258 -1.0878395 4.8307357 26112
0.97617155 -1.0864167 4.8383222 26112
0.96246541 -1.062271 4.8305011 26112
0.97618908 -1.0623823 4.8384089 26112
0.96233332 -1.0370836 4.8305054 26112
0.97620654 -1.0383469 4.8384957 26112
0.96264249 -1.0126712 4.8307614 26112
0.97622538 -1.0123075 4.8385892 26112
0.96308416 -0.98784739 4.8310947 26112
0.97624439 -0.98626733 4.8386831 26112
0.96020579 -0.97038835 4.8294921 23808
0.97625446 -0.97224522 4.8387332 26112
