# .PCD v0.7 - Point Cloud Data file format
VERSION 0.7
FIELDS x y z rgb
SIZE 4 4 4 4
TYPE F F F U
COUNT 1 1 1 1
WIDTH 1217
HEIGHT 1
VIEWPOINT 0 0 0 1 0 0 0
POINTS 1217
DATA ascii
1.9635011 -1.1372889 4.1140051 45056
-2.0394957 -1.1126074 4.1127009 227843
1.9635011 -1.112554 4.1142511 45056
-2.0394959 -1.0870498 4.1127005 227843
1.9635006 -1.0878561 4.1137581 45056
-2.0394962 -1.0626283 4.1127014 227843
1.9635009 -1.0627158 4.1143656 45056
-2.0394967 -1.0376387 4.1127019 227843
1.9635006 -1.0371412 4.1138892 45056
-2.0394969 -1.012081 4.1127028 227843
1.9635007 -1.0124309 4.1141276 45056
-2.0394969 -0.98765957 4.1127033 227843
1.9635006 -0.98771614 4.1143656 45056
-2.0394974 -0.96267003 4.1127038 227843
1.9635004 -0.96215022 4.1138887 45056
-2.0394981 -0.94332099 4.1120801 224515
1.9634991 -0.94494879 4.1126966 45056
-1.3543979 -0.85818249 4.1019073 657930
-1.3372167 -0.85854846 4.1118064 855309
-1.319966 -0.85891765 4.1217456 657930
1.2426995 -0.85862643 4.1203475 723723
1.2628106 -0.85894126 4.1087127 986895
1.2759764 -0.85801345 4.1011 657930
-1.3544159 -0.83780116 4.1019621 657930
-1.337496 -0.83736563 4.1117129 657930
-1.3198533 -0.83783239 4.1218777 657930
1.2424525 -0.83756369 4.1205573 657930
1.2630054 -0.83746779 4.1086688 657930
1.2759935 -0.83763629 4.1011548 657930
-1.3544383 -0.81232363 4.1020298 657930
-1.3372561 -0.81257999 4.1119289 657930
-1.3201314 -0.81230336 4.1217985 657930
1.2421352 -0.81267083 4.12082 657930
1.262465 -0.81212252 4.1090622 657930
1.2760149 -0.81216401 4.1012235 657930
-1.354461 -0.78684545 4.1020975 657930
-1.3370219 -0.78760177 4.1121445 657930
-1.3200278 -0.7872358 4.1219382 657930
1.2413054 -0.7871294 4.1213813 657930
1.2612041 -0.78771591 4.109869 657930
1.2760363 -0.78669077 4.1012921 657930
-1.3544818 -0.76306486 4.1021614 657930
-1.3377286 -0.76226705 4.1118178 657930
-1.3200483 -0.76334029 4.1220021 657930
1.2411634 -0.76287496 4.1215405 657930
1.2617065 -0.76257771 4.1096582 657930
1.2760562 -0.76291507 4.1013556 657930
-1.3545045 -0.73758489 4.1022296 657930
-1.3371427 -0.73746705 4.1122351 657930
-1.3200704 -0.73773712 4.1220713 657930
1.2414951 -0.73731554 4.1214299 657930
1.2619514 -0.73762536 4.1095958 657930
1.2760776 -0.73744023 4.1014247 657930
-1.3545268 -0.71210426 4.1022973 657930
-1.3370872 -0.71267772 4.1123447 657930
-1.3200926 -0.71213311 4.1221395 657930
1.2413666 -0.71203709 4.1215839 657930
1.2612292 -0.71264321 4.1100922 657930
1.276099 -0.71196461 4.1014934 657930
-1.3544185 -0.68771595 4.1024375 657930
-1.3377941 -0.68734753 4.1120191 657930
-1.3201129 -0.68823522 4.1222048 657930
1.2423556 -0.68861842 4.1210871 657930
1.2619411 -0.68732572 4.1097617 657930
1.2761189 -0.68818659 4.1015577 657930
-1.3546952 -0.66231024 4.1023593 657930
-1.3372077 -0.66253865 4.1124358 657930
-1.3201349 -0.66262954 4.122273 657930
1.242862 -0.66240531 4.1208773 657930
1.2618829 -0.66255182 4.1098738 657930
1.2761402 -0.66270924 4.1016259 657930
-1.3545928 -0.63735592 4.1024976 657930
-1.3371983 -0.63755888 4.1125197 657930
-1.3201571 -0.63702309 4.1223416 657930
1.2428827 -0.63680756 4.1209464 657930
1.2612911 -0.63775325 4.1102948 657930
1.277601 -0.63710177 4.1008615 657930
-1.3544844 -0.6129638 4.1026378 657930
-1.3378224 -0.61222994 4.1122413 657930
-1.3201773 -0.613123 4.1224051 657930
1.2429024 -0.61291558 4.1210113 657930
1.2621698 -0.61225903 4.109868 657930
1.2776212 -0.61332619 4.1009264 657930
-1.354761 -0.58755827 4.1025591 657930
-1.3372735 -0.58760315 4.1126361 657930
-1.3201996 -0.58751482 4.1224747 657930
1.242923 -0.5873161 4.1210809 657930
1.2617645 -0.58746552 4.1101809 657930
1.2776424 -0.58785158 4.1009946 657930
-1.3546586 -0.56260014 4.1026969 657930
-1.3372637 -0.56262064 4.112721 657930
-1.3202215 -0.56190574 4.1225438 657930
1.2429441 -0.56171596 4.12115 657930
1.2613599 -0.56266683 4.1104937 657930
1.2776639 -0.56237614 4.1010633 657930
-1.3546752 -0.54391009 4.1027474 986895
-1.3361466 -0.540003 4.1134367 723723
-1.3202422 -0.53800333 4.1226082 657930
1.2426684 -0.54330516 4.1213679 855309
1.2612733 -0.54556841 4.1105981 855309
1.2776767 -0.54709047 4.1011047 986895
-1.328774 -0.51286834 4.1177711 657930
-1.3202642 -0.51239264 4.1226764 657930
-1.3290519 -0.487371 4.1176925 657930
-1.3202863 -0.48678106 4.122745 657930
-1.3289484 -0.46231738 4.1178308 657930
-1.3203067 -0.46287623 4.1228089 657930
-1.3289691 -0.43844065 4.1178951 657930
-1.3203287 -0.43726304 4.1228786 657930
-1.3289911 -0.41285756 4.1179643 657930
-1.3203508 -0.41164908 4.1229467 657930
-1.3290132 -0.38727373 4.1180325 657930
-1.3203714 -0.38774186 4.1230106 657930
-1.3290342 -0.36339465 4.1180973 657930
-1.3203934 -0.3621262 4.1230798 657930
-1.3290561 -0.33780906 4.1181655 657930
-1.3204154 -0.3365097 4.1231484 657930
-1.3290784 -0.31222272 4.1182337 657930
-1.320436 -0.31260014 4.1232128 657930
-1.3290988 -0.28834131 4.1182981 657930
-1.3203323 -0.28750661 4.1233525 657930
-1.3291212 -0.26275322 4.1183667 657930
-1.3214965 -0.26313427 4.1227589 657930
-1.3291433 -0.23716433 4.1184349 657930
-1.3219429 -0.23740324 4.1225834 657930
-1.329164 -0.21328059 4.1184988 657930
-1.3219635 -0.21349542 4.1226478 657930
-1.329186 -0.18769002 4.1185675 657930
-1.3219856 -0.1878791 4.1227164 657930
-1.3292081 -0.16209865 4.1186366 657930
-1.3220078 -0.16226193 4.1227851 657930
-1.3292289 -0.13821258 4.1187005 657930
-1.3220282 -0.13835178 4.122849 657930
-1.3292509 -0.1126195 4.1187692 1381653
-1.3220502 -0.11273295 4.1229181 657930
-1.3292731 -0.087025605 4.1188378 1579032
-1.3220721 -0.087113276 4.1229868 657930
-1.3292937 -0.063137203 4.1189022 1579032
-1.3220929 -0.063200809 4.1230512 657930
-1.329316 -0.037541643 4.1189704 1579032
-1.3221149 -0.037579462 4.1231194 657930
-1.3293382 -0.01194525 4.1190386 1579032
-1.322137 -0.011957282 4.1231885 657930
-1.3293587 0.011945496 4.119103 1579032
-1.3221576 0.011957529 4.1232524 657930
-1.3293809 0.037543554 4.1191707 1579032
-1.3221796 0.037581384 4.1233215 657930
-1.329403 0.063142456 4.1192403 1579032
-1.3222016 0.063206069 4.1233897 657930
-1.3294237 0.087035529 4.1193047 1579032
-1.322222 0.087123223 4.1234541 657930
-2.0394828 -1.2855749 4.1264553 1146897
-2.0394831 -1.2633512 4.1264558 228355
-2.0394831 -1.2377081 4.1264567 228355
-2.0394835 -1.2120651 4.1264572 228355
-2.0394838 -1.1881317 4.1264572 228355
-2.039484 -1.1624888 4.1264577 228355
-2.039484 -1.1368457 4.1264586 228355
-2.0394843 -1.1129121 4.1264591 228355
-2.0394845 -1.0872692 4.1264591 228355
-2.039485 -1.0616262 4.1264606 228355
-2.0394852 -1.0376928 4.1264606 228355
-2.0394855 -1.0120497 4.126461 228355
-2.0394857 -0.98640674 4.1264615 228355
-2.0394859 -0.96247321 4.1264615 228355
-2.0394862 -0.94537783 4.1264625 225795
-1.3084137 -0.85859406 4.1284041 1052688
-1.2879139 -0.85873872 4.1402164 986895
-1.2735384 -0.85761893 4.1485033 657930
1.1946249 -0.85803908 4.148159 657930
1.2117865 -0.8586998 4.1382298 921102
1.229597 -0.859065 4.1279254 986895
-1.3086667 -0.83708376 4.1283269 657930
-1.2879894 -0.83740532 4.1402407 657930
-1.2735555 -0.83700603 4.1485591 657930
1.1959044 -0.83678967 4.1474867 657930
1.211833 -0.83756691 4.1382699 657930
1.2297413 -0.83744985 4.1279106 657930
-1.3084531 -0.81243986 4.1285276 657930
-1.2884071 -0.81226915 4.1400805 657930
-1.2735754 -0.81295693 4.1486239 657930
1.1959234 -0.81274688 4.147552 657930
1.2120788 -0.81262881 4.1382065 657930
1.2296348 -0.8123464 4.1280522 657930
-1.3082397 -0.78779256 4.1287298 657930
-1.2883449 -0.78750575 4.140193 657930
-1.2735968 -0.7871893 4.1486936 657930
1.1958448 -0.78779817 4.1476765 657930
1.2124979 -0.78750569 4.1380444 657930
1.229522 -0.7878086 4.1281953 657930
-1.3087242 -0.76220846 4.1285319 657930
-1.2877872 -0.76272786 4.1405945 657930
-1.2736181 -0.76142085 4.1487632 657930
1.1960614 -0.7621296 4.1476331 657930
1.2118024 -0.76254863 4.1385269 657930
1.2298021 -0.76224118 4.1281142 657930
-1.3085172 -0.73721844 4.1287303 657930
-1.2882925 -0.73740345 4.1403832 657930
-1.2736381 -0.73736948 4.1488285 657930
1.1959828 -0.73717922 4.147758 657930
1.2120049 -0.73760849 4.1384878 657930
1.2296954 -0.73713386 4.1282563 657930
-1.308377 -0.71291852 4.1288886 657930
-1.2885395 -0.71226507 4.1403217 657930
-1.273658 -0.71331733 4.1488934 657930
1.1960016 -0.71313334 4.1478229 657930
1.2125953 -0.71230155 4.1382265 657930
1.2297148 -0.71320093 4.1283212 657930
-1.3087082 -0.68731534 4.1287789 657930
-1.2880651 -0.68767309 4.1406732 657930
-1.2736795 -0.68754619 4.148963 657930
1.1960219 -0.68736905 4.1478934 657930
1.212178 -0.68753469 4.1385469 657930
1.2309028 -0.68676221 4.127718 657930
-1.3085814 -0.66198945 4.1289334 657930
-1.2880076 -0.66271108 4.1407857 657930
-1.2737008 -0.66177434 4.1490326 657930
1.1960421 -0.66160387 4.147964 657930
1.2117597 -0.6627627 4.1388679 657930
1.2312143 -0.66177863 4.1276174 657930
-1.3086016 -0.63805169 4.1289964 657930
-1.2887233 -0.63720983 4.1404543 657930
-1.2737207 -0.63771981 4.1490974 657930
1.196061 -0.6375556 4.1480289 657930
1.2124809 -0.63727206 4.1385317 657930
1.2312337 -0.63784844 4.1276822 657930
-1.3084748 -0.61272228 4.1291494 657930
-1.2883101 -0.61242354 4.1407714 657930
-1.2737408 -0.61366457 4.1491628 657930
1.1960799 -0.61350662 4.1480947 657930
1.2124209 -0.61232311 4.1386466 657930
1.2311131 -0.61260587 4.1278319 657930
-1.3088059 -0.58711982 4.1290407 657930
-1.2879339 -0.58782434 4.1410666 657930
-1.2737622 -0.58789027 4.1492324 657930
1.1961001 -0.58773899 4.1481647 657930
1.2119411 -0.58773273 4.1390004 657930
1.2314259 -0.58702552 4.1277323 657930
-1.3086659 -0.56281304 4.129199 657930
-1.2885665 -0.56232214 4.1407828 657930
-1.2737836 -0.56211501 4.149302 657930
1.1961203 -0.56197053 4.1482348 657930
1.2121903 -0.56260359 4.138936 657930
1.2312946 -0.56263399 4.1278853 657930
-1.3076538 -0.53715664 4.1298642 657930
-1.2877916 -0.53758317 4.1413078 657930
-1.2738036 -0.53805733 4.1493669 657930
1.1961393 -0.5379191 4.1483006 657930
1.2126974 -0.53730005 4.1387253 657930
1.2307934 -0.53837276 4.128253 657930
-1.3075241 -0.51221585 4.1300182 657930
-1.2867614 -0.51283461 4.1419802 657930
-1.273825 -0.51228046 4.149437 657930
1.1961596 -0.51214886 4.1483712 657930
1.212317 -0.51270956 4.1390233 657930
1.2300099 -0.51206374 4.1287899 1184274
-1.307282 -0.48766559 4.1302361 657930
-1.2868426 -0.4875364 4.142014 657930
-1.2738463 -0.48650268 4.1495061 657930
1.1961796 -0.48637778 4.1484408 657930
1.211899 -0.48792103 4.1393428 657930
1.2298971 -0.48751169 4.128933 1118481
-1.3070138 -0.46282309 4.1304698 657930
-1.2872838 -0.46205392 4.1418409 657930
-1.2738661 -0.46244264 4.1495714 657930
1.1961986 -0.46232399 4.1485066 657930
1.2127886 -0.46226242 4.1389103 657930
1.2297845 -0.46295759 4.1290765 1118481
-1.3076142 -0.43724114 4.1302037 657930
-1.2870035 -0.43758368 4.1420803 657930
-1.2738863 -0.43838191 4.1496363 657930
1.1962175 -0.43826947 4.148572 657930
1.212377 -0.43728229 4.1392274 657930
1.2300646 -0.43739107 4.1289959 1184274
-1.307346 -0.41239703 4.1304379 657930
-1.2866538 -0.41288859 4.1423602 657930
-1.2739075 -0.41260159 4.1497059 657930
1.1962378 -0.41249579 4.1486425 657930
1.2120806 -0.41287675 4.1394763 657930
1.2299579 -0.41226709 4.1291375 1118481
-1.3071984 -0.38813692 4.1306005 657930
-1.2874037 -0.38722131 4.1420102 657930
-1.273929 -0.38682052 4.149776 657930
1.1962579 -0.3867214 4.1487126 657930
1.212545 -0.38738307 4.1392894 657930
1.2299774 -0.38832411 4.1292019 1118481
-1.3075427 -0.36252138 4.1304836 657930
-1.2870668 -0.36209679 4.1422834 657930
-1.2739489 -0.36275738 4.1498408 657930
1.1962769 -0.36266449 4.148778 657930
1.2126201 -0.36205229 4.1393261 657930
1.229998 -0.36267003 4.129272 1118481
-1.30741 -0.33712116 4.130641 657930
-1.2870867 -0.33807662 4.1423488 657930
-1.2739688 -0.33869344 4.1499062 657930
1.1962959 -0.3386068 4.1488442 657930
1.2124563 -0.33784407 4.1394982 657930
1.2300186 -0.33701509 4.1293411 1118481
-1.3074305 -0.3131682 4.1307058 657930
-1.2869467 -0.31253746 4.1425109 657930
-1.2739888 -0.31462881 4.149971 657930
1.1963159 -0.31282982 4.1489139 657930
1.2120447 -0.31284928 4.1398144 657930
1.2300382 -0.3130697 4.129406 1118481
-1.3074524 -0.28750345 4.130774 657930
-1.2873085 -0.28683588 4.1423836 657930
1.1963364 -0.28705201 4.1489844 657930
1.2129344 -0.2872059 4.1393814 657930
1.2300588 -0.28741306 4.1294761 1118481
-1.3085512 -0.26143497 4.1302242 657930
-1.2871504 -0.2625801 4.1425524 657930
1.1963552 -0.26299194 4.1490493 657930
1.2125164 -0.26239944 4.1397023 657930
1.2300795 -0.26175562 4.1295452 1118481
-1.3089403 -0.23783463 4.1300745 657930
-1.2868693 -0.23809291 4.1427917 657930
1.196473 -0.23801138 4.1490612 657930
1.2123523 -0.23818424 4.1398749 657930
1.230099 -0.23780784 4.1296105 1118481
-1.3088046 -0.21239471 4.1302342 657930
-1.287474 -0.21242057 4.1425252 657930
1.1978692 -0.21138866 4.1483388 657930
1.2127219 -0.21249634 4.1397438 657930
1.2301198 -0.21214874 4.1296802 1118481
-1.3091577 -0.18677855 4.1301122 657930
-1.2872136 -0.18707608 4.142755 657930
1.1978881 -0.1873311 4.1484041 657930
1.2125766 -0.18694749 4.1399093 657930
1.2301403 -0.18648873 4.1297498 1118481
-1.3090047 -0.16255675 4.1302767 657930
-1.2872337 -0.16305046 4.1428208 657930
1.1979071 -0.16327281 4.1484694 657930
1.2125958 -0.16293843 4.1399736 657930
1.2301599 -0.1625386 4.1298151 1118481
-1.3087418 -0.13807134 4.1305065 657930
-1.2872552 -0.13730799 4.14289 657930
1.1979272 -0.1374952 4.1485395 657930
1.2126164 -0.13721359 4.1400433 657930
1.2301791 -0.13858771 4.12988 1118481
-1.3093154 -0.11248953 4.1302576 657930
-1.2872766 -0.11156457 4.1429601 657930
1.1979474 -0.11171674 4.1486096 657930
1.2126366 -0.11148793 4.1401134 657930
1.2301998 -0.11292519 4.1299491 1381653
-1.3090688 -0.087271594 4.1304793 657930
-1.2872969 -0.08753664 4.143024 657930
1.1979663 -0.087656043 4.1486754 657930
1.212656 -0.087476514 4.1401772 657930
1.2302206 -0.087261841 4.1300182 1644825
-1.3090892 -0.06331566 4.1305437 657930
-1.287317 -0.063507974 4.1430888 657930
1.1979853 -0.063594587 4.1487408 657930
1.212675 -0.063464358 4.140244 657930
1.2302399 -0.063308612 4.1300831 1644825
-1.3091112 -0.037647758 4.1306129 657930
-1.2873384 -0.037762102 4.1431589 657930
1.1980054 -0.037813619 4.1488109 657930
1.2126952 -0.037736163 4.1403136 657930
1.2302605 -0.037643563 4.1301532 1644825
-1.3091329 -0.011979015 4.130682 657930
-1.2873601 -0.012015396 4.1432281 657930
1.1980257 -0.012031792 4.148881 657930
1.2127157 -0.012007151 4.1403832 657930
1.2302814 -0.011977683 4.1302223 1644825
-1.3091533 0.011979262 4.1307464 657930
-1.2873802 0.012015644 4.1432924 657930
1.1980445 0.012032042 4.1489463 657930
1.2127347 0.012007402 4.1404486 657930
1.2303003 0.01197793 4.1302872 1644825
-1.3091751 0.037649684 4.130816 657930
-1.2874017 0.037764043 4.143362 657930
1.1980648 0.037815575 4.1490164 657930
1.212755 0.037738111 4.1405177 657930
1.2303212 0.0376455 4.1303563 1644825
-1.3091969 0.063320935 4.1308846 657930
-1.2874234 0.063513272 4.1434317 657930
1.1980851 0.063599959 4.1490865 657930
1.2127755 0.063469686 4.1405878 657930
1.2303419 0.063313916 4.1304259 1644825
-1.3092175 0.087281555 4.1309476 657930
-1.2874432 0.087546661 4.143496 657930
1.198104 0.087666169 4.1491518 657930
1.2127948 0.087486595 4.1406531 657930
1.2303612 0.087271892 4.1304903 1644825
-1.2601136 -0.85896516 4.1562352 1052688
-1.2383132 -0.85836053 4.1687984 723723
1.1499439 -0.85943174 4.1740017 1184274
1.1635183 -0.85848832 4.166152 855309
1.182948 -0.85867923 4.154912 855309
-1.2601793 -0.83766919 4.1562638 657930
-1.23833 -0.8376469 4.1688552 657930
1.1499596 -0.83869225 4.1740584 657930
1.1635356 -0.83735698 4.1662087 657930
1.1839284 -0.83786613 4.1544104 657930
-1.2604769 -0.81250918 4.1561742 657930
-1.2380607 -0.81297064 4.1690888 657930
1.1499791 -0.81276715 4.1741295 657930
1.1630645 -0.81254303 4.1665606 657930
1.1840216 -0.81264216 4.1544375 657930
-1.2607256 -0.78734905 4.1561098 657930
-1.2383707 -0.78758532 4.1689916 657930
1.1499947 -0.79202646 4.1741862 657930
1.1626356 -0.78715909 4.1668892 657930
1.1844081 -0.78715646 4.154295 657930
-1.260263 -0.76259059 4.1564546 657930
-1.2386799 -0.76220244 4.1688933 657930
1.1621929 -0.76234913 4.1672254 657930
1.1841587 -0.76247698 4.1545172 657930
-1.2602401 -0.73763138 4.1565471 657930
-1.2384108 -0.73752272 4.1691275 657930
1.162127 -0.73742235 4.1673417 657930
1.1839091 -0.73779386 4.1547399 657930
-1.2607081 -0.71226507 4.1563587 657930
-1.2381412 -0.71283919 4.1693621 657930
1.1616397 -0.71267217 4.1677027 657930
1.1842964 -0.71230823 4.1545973 657930
-1.2606845 -0.68730664 4.1564522 657930
-1.2384511 -0.68745488 4.1692634 657930
1.1618446 -0.68755704 4.1676641 657930
1.1843891 -0.68708307 4.1546245 657930
-1.2603445 -0.66275948 4.1567259 657930
-1.2387608 -0.66207242 4.1691651 657930
1.1622691 -0.66225952 4.1674981 657930
1.1842363 -0.66269249 4.1547899 657930
-1.2603217 -0.63779634 4.1568184 657930
-1.2384918 -0.63738549 4.1693993 657930
1.1622033 -0.63732839 4.1676149 657930
1.1839868 -0.63800246 4.1550126 657930
-1.2609576 -0.61222839 4.1565328 657930
-1.2383342 -0.61295092 4.1695681 657930
1.1618503 -0.61276603 4.1678982 657930
1.1845328 -0.61224955 4.1547794 657930
-1.260587 -0.58724409 4.1568265 657930
-1.2383614 -0.58778989 4.1696315 657930
1.1617854 -0.58782953 4.1680155 657930
1.1842949 -0.58698559 4.1549969 657930
-1.2604268 -0.56291515 4.1569963 657930
-1.2388927 -0.56218064 4.1694074 657930
1.1623414 -0.56234854 4.1677732 657930
1.1843139 -0.5628953 4.1550627 657930
-1.2604326 -0.53773528 4.1570725 657930
-1.2385724 -0.53723532 4.1696711 657930
1.1622797 -0.53722143 4.1678896 657930
1.1840379 -0.5379082 4.1553006 657930
-1.2610211 -0.51216906 4.1568155 657930
-1.2385919 -0.5130592 4.1697364 657930
1.1621128 -0.51285338 4.1680641 657930
1.1846491 -0.51216704 4.1550288 657930
-1.260669 -0.48739266 4.1570964 657930
-1.2382783 -0.48786148 4.1699982 657930
1.1628155 -0.48824355 4.1677351 657930
1.1843729 -0.4871783 4.1552696 657930
-1.2605088 -0.46305814 4.1572666 657930
-1.2391534 -0.46223292 4.1695743 657930
1.163838 -0.46228009 4.1672268 657930
1.1843917 -0.46308494 4.1553345 657930
-1.2605898 -0.43766618 4.1573 657930
-1.2401294 -0.43698287 4.1690931 657930
1.1638415 -0.43703744 4.1673045 657930
1.1841544 -0.43780878 4.1555524 657930
-1.2610343 -0.41209161 4.1571264 657930
-1.2401487 -0.41280857 4.1691585 657930
1.1636775 -0.41264206 4.1674776 657930
1.1846995 -0.41206363 4.1553173 657930
-1.2607511 -0.38752818 4.1573668 657930
-1.2399006 -0.38801935 4.1693797 657930
1.1633888 -0.38801649 4.1677217 657930
1.1844506 -0.38735795 4.1555409 657930
-1.2604676 -0.3629607 4.157609 657930
-1.2404464 -0.36219177 4.1691484 657930
1.1638383 -0.36237937 4.1675439 657930
1.1844692 -0.3632614 4.1556067 657930
-1.2610765 -0.33718845 4.15734 657930
-1.2402103 -0.33682698 4.1693649 657930
1.1639179 -0.33692461 4.1675792 657930
1.1844893 -0.3374429 4.1556778 657930
-1.261045 -0.31156933 4.1574397 657930
-1.2402297 -0.31264949 4.1694303 657930
1.1637542 -0.31252357 4.1677508 657930
1.1845094 -0.31162348 4.1557474 657930
-1.2622975 -0.28759232 4.1567941 657930
-1.2402492 -0.28847116 4.1694965 657930
1.1637727 -0.28835502 4.1678166 657930
1.184528 -0.28752449 4.1558132 657930
-1.2620015 -0.26307407 4.1570425 657930
-1.2402703 -0.26256496 4.1695666 657930
1.1637924 -0.26245934 4.1678886 657930
1.1845468 -0.26342481 4.155879 657930
-1.2626318 -0.23730433 4.1567612 657930
-1.2402914 -0.23665793 4.1696372 657930
1.1638125 -0.23656277 4.1679592 657930
1.184778 -0.23735031 4.1558285 657930
-1.2623595 -0.21182999 4.1569996 657930
-1.2403105 -0.21247725 4.1697025 657930
1.1638308 -0.21239184 4.1680255 657930
1.1860636 -0.21173657 4.1551661 657930
-1.2623791 -0.18772216 4.1570644 657930
-1.2403302 -0.18829584 4.1697683 657930
1.1638495 -0.18822016 4.1680923 657930
1.1860824 -0.18763945 4.1552324 657930
-1.2620834 -0.16319628 4.1573124 657930
-1.240351 -0.16238627 4.1698384 657930
1.1638689 -0.16232105 4.1681614 657930
1.1861011 -0.16354156 4.1552987 657930
-1.2627139 -0.13743167 4.1570315 657930
-1.2403719 -0.13647589 4.169909 657930
1.1638889 -0.13642105 4.1682334 657930
1.1861212 -0.13772151 4.1553679 657930
-1.2624418 -0.11194991 4.1572695 657930
-1.2403914 -0.11229205 4.1699748 657930
1.1639074 -0.11224694 4.1682992 657930
1.1861414 -0.11190063 4.1554394 657930
-1.2624614 -0.087839007 4.1573348 657930
-1.2404109 -0.088107452 4.1700392 657930
1.163926 -0.088072069 4.168366 657930
1.1861601 -0.087800339 4.1555047 657930
-1.2621658 -0.063305557 4.1575823 657930
-1.2404318 -0.062194511 4.1701102 657930
1.1639457 -0.062169563 4.1684365 657930
1.186179 -0.063699275 4.1555696 657930
-1.2627962 -0.037546046 4.1573014 657930
-1.2404529 -0.036280744 4.1701803 657930
1.1639653 -0.036266185 4.1685071 657930
1.1861989 -0.037875868 4.1556406 657930
-1.2625235 -0.012056902 4.1575389 657930
-1.2404722 -0.012093753 4.1702461 657930
1.1639841 -0.012088896 4.1685719 657930
1.186219 -0.012051597 4.1557112 657930
-1.2625437 0.012057153 4.1576042 657930
-1.2404916 0.012094002 4.1703115 657930
1.1640021 0.012089153 4.1686392 657930
1.1862377 0.01205185 4.1557765 657930
-1.2628578 0.037547946 4.157505 657930
-1.2405115 0.036282521 4.1703768 657930
1.1640205 0.03626797 4.1687045 657930
1.1862577 0.03787782 4.1558461 657930
-1.2622697 0.063310854 4.1579251 657930
-1.2405325 0.062199648 4.1704478 657930
1.1640404 0.062174704 4.1687765 657930
1.1862776 0.063704669 4.1559167 657930
-1.2626057 0.087849081 4.1578093 657930
-1.2405533 0.088117629 4.1705179 657930
1.1640602 0.088082314 4.1688461 657930
1.1862966 0.087810509 4.155983 657930
-1.2265003 -0.85976112 4.1756015 1184274
-1.213336 -0.85853326 4.1831918 921102
-1.1922607 -0.85888934 4.1953344 1184274
1.1153257 -0.8591826 4.1940284 1052688
1.1365987 -0.85865432 4.1817236 921102
-1.2265183 -0.83728462 4.175662 657930
-1.2133541 -0.83731538 4.1832485 657930
-1.1924616 -0.83718991 4.1952877 657930
1.1154871 -0.83748627 4.1940036 657930
1.136815 -0.83723348 4.1816669 657930
-1.2265389 -0.81134945 4.1757336 657930
-1.213009 -0.81261992 4.1835251 657930
-1.1925186 -0.8120048 4.1953344 657930
1.1157795 -0.81203848 4.1939144 657930
1.1365235 -0.81255037 4.1819139 657930
-1.2265584 -0.78714246 4.1757989 657930
-1.2130063 -0.78771681 4.1836061 657930
-1.1923645 -0.78738034 4.1955018 657930
1.1155241 -0.78712511 4.1941419 657930
1.136232 -0.78786325 4.1821613 657930
-1.2265776 -0.76293474 4.1758647 657930
-1.2133068 -0.76239228 4.1835136 657930
-1.1923833 -0.76305825 4.195569 657930
1.1155419 -0.76281112 4.1942096 657930
1.136485 -0.76254487 4.1820946 657930
-1.2265971 -0.73872626 4.175931 657930
-1.2135582 -0.73706746 4.1834502 657930
-1.1921309 -0.73813093 4.1957946 657930
1.1152862 -0.73789215 4.1944361 657930
1.1367862 -0.73723012 4.1820011 657930
-1.2266178 -0.71278775 4.1760015 657930
-1.2132708 -0.71236748 4.1836939 657930
-1.1934683 -0.71291959 4.1951022 657930
1.1155788 -0.71244305 4.1943479 657930
1.1367823 -0.71233594 4.1820827 657930
-1.2266386 -0.68684828 4.1760716 657930
-1.2131073 -0.68788648 4.183866 657930
-1.1941026 -0.68684202 4.1948199 657930
1.115871 -0.68699592 4.1942601 657930
1.1366167 -0.68786544 4.1822557 657930
-1.2266579 -0.66263741 4.1761379 657930
-1.2130834 -0.66276091 4.1839595 657930
-1.1939563 -0.66215187 4.194984 657930
1.1156156 -0.66207343 4.1944861 657930
1.1362545 -0.66294867 4.1825457 657930
-1.2266772 -0.63842577 4.1762033 657930
-1.2135565 -0.63723087 4.1837678 657930
-1.193975 -0.63783097 4.1950498 657930
1.1156336 -0.63775551 4.1945539 657930
1.1367307 -0.63742608 4.1823506 657930
-1.2266979 -0.61248386 4.1762743 657930
-1.213532 -0.61210626 4.1838617 657930
-1.1938283 -0.61313689 4.1952128 657930
1.1154763 -0.61312807 4.1947236 657930
1.1369827 -0.61211032 4.1822853 657930
-1.2267187 -0.58654106 4.1763449 657930
-1.2133691 -0.58762079 4.1840339 657930
-1.1940143 -0.58744889 4.195188 657930
1.1155699 -0.58765769 4.1947498 657930
1.1366918 -0.58741015 4.1825323 657930
-1.226738 -0.56232697 4.1764107 657930
-1.2120438 -0.56247485 4.1848774 657930
-1.1932633 -0.56245607 4.1956992 657930
1.1159626 -0.5619325 4.1946044 657930
1.1365258 -0.56293112 4.1827064 657930
-1.2267573 -0.53811216 4.1764765 657930
-1.2119219 -0.53747874 4.1850271 657930
-1.1925606 -0.53717464 4.1961851 657930
1.1157072 -0.53700131 4.1948309 657930
1.1365005 -0.53780991 4.1827998 657930
-1.226778 -0.51216686 4.1765471 657930
-1.2123464 -0.51208264 4.1848636 657930
-1.1925795 -0.51284468 4.1962519 657930
1.1157252 -0.51267934 4.1948981 657930
1.1371472 -0.51208848 4.1825085 657930
-1.2267989 -0.48622063 4.1766171 657930
-1.2119612 -0.48721561 4.185164 657930
-1.1925983 -0.48851401 4.1963181 657930
1.115743 -0.48835665 4.1949654 657930
1.1367667 -0.48694131 4.1828079 657930
1.1502273 -0.48430619 4.1750302 657930
-1.2271889 -0.46068299 4.1764736 657930
-1.2119803 -0.46294889 4.1852307 657930
-1.1926187 -0.46244466 4.1963892 657930
1.1154999 -0.46284065 4.1951871 657930
1.1367848 -0.46268836 4.1828756 657930
1.1502441 -0.46182734 4.1750917 657930
-1.2283169 -0.43769613 4.1758971 657930
-1.2115946 -0.43807474 4.1855316 657930
-1.192639 -0.4363744 4.1964602 657930
1.1160544 -0.43684864 4.1949482 657930
1.136493 -0.43797469 4.1831222 657930
1.1502625 -0.43761864 4.175158 657930
-1.2283363 -0.41348225 4.1759634 657930
-1.212239 -0.41230923 4.1852431 657930
-1.1926578 -0.41204134 4.196527 657930
1.1157992 -0.41190866 4.1951761 657930
1.1368225 -0.41244629 4.183013 657930
1.1502808 -0.41340917 4.1752243 657930
-1.2283571 -0.38753805 4.176034 657930
-1.2122258 -0.38688344 4.1853304 657930
-1.1926767 -0.38770744 4.1965938 657930
1.1158167 -0.38758269 4.1952429 657930
1.137151 -0.38692018 4.1829038 657930
1.1503003 -0.38746953 4.1752954 657930
-1.2283777 -0.36159298 4.1761041 657930
-1.2120597 -0.36240697 4.1855049 657930
-1.1926957 -0.36337277 4.19666 657930
1.1158346 -0.36325592 4.1953101 657930
1.13686 -0.36220309 4.1831508 657930
1.1503201 -0.36152908 4.1753669 657930
-1.2283971 -0.33737674 4.1761699 657930
-1.2120788 -0.3381362 4.1855707 657930
-1.1925709 -0.33769813 4.1968136 657930
1.1155518 -0.33801514 4.1955538 657930
1.1368779 -0.33794609 4.183217 657930
1.1503383 -0.3373172 4.1754327 657930
-1.2284166 -0.31315976 4.1762362 657930
-1.2116548 -0.31305501 4.1858945 657930
-1.1928903 -0.31169724 4.196712 657930
1.1161735 -0.31203794 4.1952772 657930
1.1365159 -0.31299925 4.183507 657930
1.1503564 -0.31310454 4.1754994 657930
-1.2284373 -0.28721213 4.1763067 657930
-1.2125564 -0.28712675 4.1854582 657930
-1.1927553 -0.28688756 4.1968684 657930
1.1158905 -0.28679535 4.1955209 657930
1.1372842 -0.28708518 4.1831441 657930
1.150376 -0.28716153 4.1755705 657930
-1.2284582 -0.26126367 4.1763773 657930
-1.2121389 -0.26185179 4.1857796 657930
-1.1927739 -0.26254979 4.1969361 657930
1.1159085 -0.26246542 4.1955886 657930
1.1369348 -0.26170468 4.1834269 657930
1.1503958 -0.26121765 4.175642 657930
-1.2284774 -0.23704425 4.1764431 657930
-1.2121582 -0.23757793 4.1858444 657930
-1.1927928 -0.23821115 4.1970015 657930
1.1169444 -0.23857145 4.1950641 657930
1.1369529 -0.23744449 4.1834936 657930
1.1504141 -0.23700257 4.1757083 657930
-1.2284968 -0.21282412 4.1765089 657930
-1.2121775 -0.21330322 4.1859107 657930
-1.1926131 -0.21294999 4.197186 657930
1.1172843 -0.21337721 4.1949472 657930
1.1369709 -0.21318342 4.1835599 657930
1.1504323 -0.21278669 4.1757746 657930
-1.228516 -0.18860321 4.1765742 657930
-1.2119006 -0.18764777 4.186152 657930
-1.1930319 -0.18697622 4.1970267 657930
1.1176254 -0.18737766 4.1948333 657930
1.1366218 -0.18779416 4.1838427 657930
1.1504507 -0.18857011 4.1758413 657930
-1.228537 -0.16265136 4.1766448 657930
-1.2125379 -0.16170265 4.1858678 657930
-1.1928521 -0.16171339 4.1972108 657930
1.1174899 -0.16162801 4.194994 657930
1.1373901 -0.16188872 4.1834817 657930
1.1504704 -0.16262284 4.1759129 657930
-1.2285576 -0.13669868 4.1767159 657930
-1.2122375 -0.13700643 4.1861186 657930
-1.192871 -0.1373716 4.1972775 657930
1.1175077 -0.13729908 4.1950612 657930
1.137028 -0.13692956 4.1837697 657930
1.1504899 -0.13667472 4.1759834 657930
-1.228577 -0.11247534 4.1767817 657930
-1.2122567 -0.1127286 4.1861849 657930
-1.1928899 -0.11302908 4.1973443 657930
1.1175256 -0.11296941 4.195128 657930
1.1370462 -0.11266533 4.1838369 657930
1.1505082 -0.11245566 4.1760497 657930
-1.2285963 -0.088251285 4.1768479 657930
-1.2122757 -0.088449948 4.1862516 657930
-1.1934464 -0.089514352 4.1970973 657930
1.1175435 -0.088638939 4.1951947 657930
1.1370645 -0.088400371 4.1839037 657930
1.1505264 -0.08823584 4.1761165 657930
-1.2286171 -0.062296059 4.176918 657930
-1.2122964 -0.062436309 4.1863227 657930
-1.1944239 -0.062589906 4.19662 657930
1.1175625 -0.062569715 4.1952662 657930
1.1370836 -0.062401298 4.1839747 657930
1.150546 -0.062285159 4.176187 657930
-1.2286379 -0.036339972 4.1769881 657930
-1.2123169 -0.036421798 4.1863933 657930
-1.1944442 -0.036511391 4.196691 657930
1.1175816 -0.036499619 4.1953382 657930
1.1371028 -0.036401372 4.1840458 657930
1.1505657 -0.036333621 4.1762581 657930
-1.2286574 -0.012113495 4.1770544 657930
-1.2123361 -0.012140768 4.1864581 657930
-1.194463 -0.012170635 4.1967583 657930
1.1175995 -0.012166712 4.195405 657930
1.137121 -0.012133961 4.1841121 657930
1.1505839 -0.012111378 4.1763244 657930
-1.2286766 0.012113748 4.1771197 657930
-1.2123551 0.01214102 4.1865253 657930
-1.1944818 0.012170889 4.1968241 657930
1.117617 0.012166969 4.1954713 657930
1.1371392 0.012134219 4.1841793 657930
1.1506022 0.012111634 4.1763906 657930
-1.228696 0.036341753 4.177186 657930
-1.2123741 0.036423586 4.1865916 657930
-1.1945008 0.036513183 4.1968908 657930
1.1176351 0.036501426 4.195539 657930
1.1371572 0.036403172 4.1842456 657930
1.1506205 0.036335409 4.1764569 657930
-1.2287166 0.062301192 4.1772566 657930
-1.2123951 0.062441453 4.1866617 657930
-1.1945212 0.062595077 4.1969614 657930
1.117654 0.06257493 4.1956105 657930
1.1371764 0.062406488 4.1843171 657930
1.1506399 0.062290322 4.176528 657930
-1.2287375 0.088261485 4.1773272 657930
-1.2124156 0.088460214 4.1867328 657930
-1.1945413 0.088677846 4.1970334 657930
1.1176733 0.088649295 4.195682 657930
1.1371958 0.088410676 4.1843882 657930
1.1506596 0.0882461 4.176599 657930
-1.1788456 -0.85845095 4.2030659 657930
-1.1622766 -0.85886711 4.2126131 1052688
-1.1457171 -0.85885137 4.2221541 657930
1.0684897 -0.85864151 4.2211232 723723
1.0882621 -0.85892963 4.2096853 855309
1.1034088 -0.85801375 4.2009254 657930
-1.1788617 -0.83756703 4.2031236 657930
-1.1623558 -0.83750153 4.2126341 657930
-1.1457331 -0.83787262 4.2222128 657930
1.0685046 -0.83766794 4.22118 657930
1.0881728 -0.83757389 4.2098036 657930
1.1034241 -0.83714056 4.2009826 657930
-1.1788805 -0.81320173 4.2031898 657930
-1.1625561 -0.81243348 4.2125993 657930
-1.1457511 -0.81339657 4.22228 657930
1.0685217 -0.81319803 4.2212496 657930
1.0884002 -0.81230509 4.2097526 657930
1.1034416 -0.81278759 4.2010498 657930
-1.1787633 -0.78821713 4.2033367 657930
-1.162552 -0.7873584 4.2126818 657930
-1.1456325 -0.78829843 4.2224278 657930
1.0682919 -0.7879976 4.2214613 657930
1.0886273 -0.78703767 4.2097015 657930
1.1034592 -0.78843409 4.201117 657930
-1.1790497 -0.76218456 4.2032542 657930
-1.1623859 -0.76271164 4.2128553 657930
-1.145921 -0.76214784 4.2223444 657930
1.0685574 -0.76250684 4.2213898 657930
1.0883311 -0.76218593 4.2099524 657930
1.1034782 -0.76234001 4.201189 657930
-1.1789392 -0.73661983 4.2033992 657930
-1.1620929 -0.73783827 4.2131033 657930
-1.1458085 -0.73646683 4.2224908 657930
1.0693825 -0.73764551 4.2209907 657930
1.0883487 -0.73777992 4.2100196 657930
1.103497 -0.73624516 4.201261 657930
-1.1801109 -0.71147001 4.202805 657930
-1.1623204 -0.71255034 4.2130523 657930
-1.1458268 -0.71198767 4.222558 657930
1.0701191 -0.71166557 4.2206483 657930
1.0880523 -0.71292251 4.2102695 657930
1.1035148 -0.71188909 4.2013283 657930
-1.1804749 -0.68774086 4.2026701 657930
-1.162547 -0.68726373 4.2130027 657930
-1.1458451 -0.68750769 4.2226257 657930
1.0701364 -0.68719661 4.220715 657930
1.0882801 -0.68765146 4.210218 657930
1.1035324 -0.68753225 4.2013955 657930
-1.1804936 -0.66337568 4.2027369 657930
-1.1627738 -0.6619783 4.2129517 657930
-1.1458635 -0.66302681 4.2226934 657930
1.0701536 -0.66272694 4.2207828 657930
1.0885073 -0.66238201 4.2101674 657930
1.1035501 -0.66317457 4.2014627 657930
-1.1803131 -0.63809878 4.2029209 657930
-1.1624811 -0.63709962 4.2132006 657930
-1.1458819 -0.63854527 4.2227607 657930
1.0701709 -0.63825655 4.2208509 657930
1.0887345 -0.63711393 4.2101159 657930
1.1034676 -0.6378969 4.2015905 657930
-1.180733 -0.61207336 4.2027621 657930
-1.1624994 -0.61267275 4.2132668 657930
-1.1457695 -0.61285722 4.2229066 657930
1.0700306 -0.61331606 4.2210116 657930
1.0884383 -0.61225075 4.2103658 657930
1.1036879 -0.6118964 4.2015462 657930
-1.1805526 -0.58679467 4.2029467 657930
-1.1623331 -0.58801466 4.2134409 657930
-1.146058 -0.58670676 4.2228246 657930
1.0702065 -0.58756483 4.2209916 657930
1.0884558 -0.58783996 4.2104335 657930
1.1036056 -0.58661699 4.2016745 657930
-1.1805713 -0.56242639 4.2030134 657930
-1.1623294 -0.5629288 4.2135229 657930
-1.1459391 -0.56159806 4.2229719 657930
1.0703821 -0.56181419 4.2209711 657930
1.0881594 -0.562971 4.2106848 657930
1.1036232 -0.56225616 4.2017412 657930
-1.1805899 -0.53805721 4.2030802 657930
-1.1626337 -0.53742832 4.2134299 657930
-1.1459572 -0.53711331 4.2230392 657930
1.0702422 -0.53687066 4.2211318 657930
1.0883871 -0.53769958 4.2106328 657930
1.1036409 -0.53789455 4.2018085 657930
-1.1804539 -0.51321787 4.2032371 657930
-1.1628872 -0.51192605 4.2133641 657930
-1.1459757 -0.51262766 4.2231069 657930
1.0702593 -0.51239622 4.2212 657930
1.0887414 -0.51222092 4.2105083 657930
1.1036586 -0.5135321 4.2018762 657930
-1.1807742 -0.48717296 4.203136 657930
-1.1625948 -0.4870362 4.2136121 657930
-1.1459939 -0.4881413 4.2231741 657930
1.0702765 -0.48792097 4.2212682 657930
1.0887144 -0.48693302 4.2106066 657930
1.1036775 -0.48742864 4.2019477 657930
-1.180649 -0.46146369 4.2032895 657930
-1.1626132 -0.46260431 4.2136788 657930
-1.1463301 -0.464555 4.2230558 657930
1.0702937 -0.46344492 4.2213354 657930
1.0885454 -0.46228626 4.2107801 657930
1.1036962 -0.46132427 4.2020202 657930
-1.1806678 -0.43709141 4.2033563 657930
-1.1626319 -0.43817189 4.2137456 657930
-1.1474438 -0.43814871 4.2224979 657930
1.0701082 -0.43804741 4.2215238 657930
1.0885628 -0.4378705 4.2108493 657930
1.1037141 -0.43695945 4.2020869 657930
-1.1806864 -0.41271839 4.203423 657930
-1.1622677 -0.41304955 4.2140355 657930
-1.1476649 -0.41202107 4.2224536 657930
1.0705333 -0.41191429 4.2213607 657930
1.088394 -0.41321951 4.2110248 657930
1.1037318 -0.41259381 4.2021546 657930
-1.1807051 -0.38834456 4.2034903 657930
-1.1627471 -0.38734689 4.213841 657930
-1.1475831 -0.3866097 4.2225819 657930
1.0703478 -0.38651511 4.2215495 657930
1.0883968 -0.38770947 4.2111039 657930
1.1037494 -0.3882274 4.2022214 657930
-1.1805247 -0.36305094 4.2036748 657930
-1.1630009 -0.36184439 4.2137761 657930
-1.1476014 -0.36212426 4.2226491 657930
1.070365 -0.36203578 4.2216158 657930
1.0890032 -0.36182013 4.2108359 657930
1.1036668 -0.36293671 4.2023497 657930
-1.1809444 -0.33703136 4.2035155 657930
-1.1627084 -0.33694321 4.2140241 657930
-1.1476196 -0.3376382 4.2227163 657930
1.0703821 -0.33755571 4.2216849 657930
1.0886356 -0.33671165 4.2111287 657930
1.1038873 -0.33693448 4.2023053 657930
-1.1807641 -0.31173614 4.2036996 657930
-1.162727 -0.31250662 4.2140908 657930
-1.1476381 -0.3131513 4.2227831 657930
1.0703993 -0.3130748 4.2217526 657930
1.0886528 -0.31229201 4.2111959 657930
1.1038048 -0.31164214 4.2024331 657930
-1.1807827 -0.28735903 4.2037663 657930
-1.1627452 -0.2880694 4.2141585 657930
-1.1476562 -0.28866363 4.2228508 657930
1.0704166 -0.28859314 4.2218204 657930
1.0886701 -0.28787157 4.2112632 657930
1.1038226 -0.28727248 4.2025003 657930
-1.1808015 -0.26298124 4.2038331 657930
-1.1625789 -0.26339263 4.2143321 657930
-1.1476759 -0.26242593 4.2229233 657930
1.06891 -0.26241675 4.222775 657930
1.0871676 -0.26350531 4.2122107 657930
1.1038402 -0.26290205 4.2025676 657930
-1.1808202 -0.23860262 4.2038999 657930
-1.1626605 -0.23765031 4.2143669 657930
-1.1476955 -0.23618735 4.2229948 657930
1.0689286 -0.23617914 4.2228479 657930
1.0867901 -0.23787659 4.2125096 657930
1.1050512 -0.23757604 4.2019472 657930
-1.1808401 -0.21248189 4.2039714 657930
-1.1631147 -0.2117334 4.2141881 657930
-1.1477137 -0.21169725 4.2230625 657930
1.0689458 -0.21168987 4.2229161 657930
1.0876187 -0.2117822 4.2121134 657930
1.1053873 -0.21237379 4.2018323 657930
-1.1808604 -0.18636024 4.2040429 657930
-1.1628219 -0.18682089 4.2144351 657930
-1.1477321 -0.1872063 4.2231297 657930
1.0689627 -0.18719983 4.2229834 657930
1.0872227 -0.18673165 4.2124224 657930
1.1054064 -0.18626544 4.2019048 657930
-1.180879 -0.16197921 4.2041087 657930
-1.1628407 -0.16237962 4.2145023 657930
-1.1477503 -0.16271462 4.223197 657930
1.0689801 -0.16270903 4.2230515 657930
1.0872403 -0.16230211 4.2124901 657930
1.1054242 -0.16189688 4.2019734 657930
-1.1808978 -0.13759741 4.2041759 657930
-1.162859 -0.13793759 4.21457 657930
-1.1477687 -0.13822214 4.2232652 657930
1.0689974 -0.13821743 4.2231197 657930
1.0872576 -0.13787176 4.2125583 657930
1.1054418 -0.1375275 4.2020402 657930
-1.1809165 -0.11321484 4.2042427 657930
-1.1628774 -0.11349475 4.2146368 657930
-1.147787 -0.1137289 4.2233319 657930
1.0690144 -0.11372501 4.2231884 657930
1.087275 -0.11344062 4.212625 657930
1.1054598 -0.11315735 4.202107 657930
-1.1816605 -0.088149175 4.2038937 657930
-1.16273 -0.087500848 4.2148051 657930
-1.1478066 -0.087485239 4.2234039 657930
1.0702894 -0.088187918 4.2225308 657930
1.0868971 -0.0877987 4.212925 657930
1.1054773 -0.088786401 4.2021742 657930
-1.1824534 -0.062692769 4.2035179 657930
-1.1631016 -0.061357792 4.214673 657930
-1.1478262 -0.06124071 4.2234755 657930
1.0705777 -0.061225839 4.2224503 657930
1.0877259 -0.061715834 4.2125287 657930
1.105496 -0.062673807 4.2022462 657930
-1.1824734 -0.036571402 4.2035894 657930
-1.1629355 -0.036669344 4.214848 657930
-1.1478444 -0.036745001 4.2235432 657930
1.0705949 -0.036736079 4.222518 657930
1.08733 -0.036651861 4.2128372 657930
1.1055151 -0.036560338 4.2023177 657930
-1.1824921 -0.012190636 4.2036562 657930
-1.1629542 -0.012223288 4.2149143 657930
-1.1478627 -0.012248507 4.2236104 657930
1.0706121 -0.012245537 4.2225862 657930
1.0873473 -0.01221746 4.2129049 657930
1.1055329 -0.012186955 4.2023849 657930
-1.182511 0.012190893 4.2037225 657930
-1.1629723 0.012223546 4.2149816 657930
-1.1478812 0.012248768 4.2236776 657930
1.0706292 0.012245796 4.2226534 657930
1.0873646 0.012217718 4.2129722 657930
1.1055504 0.012187211 4.2024522 657930
-1.1825297 0.036573205 4.2037888 657930
-1.1629908 0.036671162 4.2150474 657930
-1.1478994 0.036746822 4.2237449 657930
1.0706465 0.036737911 4.2227216 657930
1.0873822 0.03665369 4.2130408 657930
1.1055679 0.036562156 4.2025199 657930
-1.1825498 0.062697969 4.2038612 657930
-1.1631948 0.061362751 4.2150102 657930
-1.1479176 0.061245654 4.2238126 657930
1.0706636 0.06123082 4.2227893 657930
1.0878139 0.0617209 4.2128692 657930
1.1055869 0.062679037 4.2025909 657930
-1.1825701 0.088823609 4.2039323 657930
-1.1628622 0.087510899 4.2152839 657930
-1.1479372 0.08749529 4.2238846 657930
1.070682 0.0874741 4.2228618 657930
1.0870224 0.087808885 4.2134109 657930
1.1056058 0.088796794 4.2026629 657930
-1.1334773 -0.8592068 4.2292066 1250067
-1.1120136 -0.85905761 4.2415752 986895
1.0208962 -0.85896081 4.2486534 1184274
1.0363109 -0.85891503 4.239737 855309
1.0547358 -0.85938293 4.2290773 1184274
-1.1336101 -0.83750618 4.2291989 657930
-1.1121516 -0.83759344 4.2415643 657930
1.0210137 -0.83701789 4.2486553 657930
1.0361363 -0.8376236 4.2399049 657930
1.054751 -0.83749413 4.2291379 657930
-1.1338749 -0.81196886 4.2291279 657930
-1.1122177 -0.81261522 4.2416048 657930
1.020928 -0.81146193 4.248786 657930
1.0362072 -0.81260723 4.2399435 657930
1.0549272 -0.81169271 4.2291174 657930
-1.1336476 -0.78672183 4.2293391 657930
-1.1122832 -0.78763705 4.2416468 657930
1.0209444 -0.78683156 4.2488546 657930
1.0362785 -0.78759104 4.2399821 657930
1.0547863 -0.78671074 4.2292781 657930
-1.1336656 -0.76220369 4.2294064 657930
-1.1123964 -0.76246423 4.2416615 657930
1.0209609 -0.76220042 4.2489233 657930
1.0363495 -0.76257426 4.2400198 657930
1.0548031 -0.7621929 4.2293468 657930
-1.1336839 -0.73768485 4.2294741 657930
-1.1124629 -0.73729032 4.241704 657930
1.0209775 -0.73756844 4.2489924 657930
1.0365 -0.73734128 4.2400136 657930
1.0555609 -0.73692262 4.2289886 657930
-1.1337019 -0.71316504 4.2295408 657930
-1.1127143 -0.71212226 4.2416387 657930
1.0209941 -0.71293575 4.2490611 657930
1.0365456 -0.71210384 4.2400675 657930
1.0563673 -0.71300608 4.2285991 657930
-1.1335515 -0.68827093 4.2297077 657930
-1.1124038 -0.68713057 4.2418962 657930
1.0221689 -0.6895135 4.248456 657930
1.0366166 -0.68708652 4.2401056 657930
1.0562143 -0.68811774 4.2287655 657930
-1.1336572 -0.66270989 4.2297273 657930
-1.1124218 -0.66253793 4.2419658 657930
1.0225726 -0.66352814 4.2483048 657930
1.0364447 -0.66227549 4.2402844 657930
1.0563169 -0.66291225 4.228786 657930
-1.1340045 -0.63683379 4.2296095 657930
-1.1124394 -0.63794482 4.2420335 657930
1.0225892 -0.63889825 4.2483735 657930
1.0364611 -0.63769209 4.2403526 657930
1.0565023 -0.6373685 4.2287607 657930
-1.1337768 -0.61157531 4.2298212 657930
-1.1121287 -0.61294496 4.2422934 657930
1.022607 -0.61250806 4.2484469 657930
1.0364782 -0.61310774 4.2404208 657930
1.0566077 -0.61181372 4.2287812 657930
-1.133795 -0.58705151 4.2298889 657930
-1.1123805 -0.5877738 4.2422256 657930
1.0226246 -0.58611697 4.2485209 657930
1.0361764 -0.58806318 4.240675 657930
1.0564549 -0.58692092 4.2289481 657930
-1.1338133 -0.56252694 4.2299566 657930
-1.112447 -0.56259441 4.2422681 657930
1.0226412 -0.56148458 4.2485895 657930
1.0364065 -0.5626114 4.240623 657930
1.0564718 -0.56240195 4.2290168 657930
-1.1338313 -0.53800166 4.2300239 657930
-1.1126536 -0.53722751 4.2422309 657930
1.0226578 -0.53685129 4.2486582 657930
1.036557 -0.53737485 4.2406163 657930
1.0564888 -0.53788215 4.229085 657930
-1.1338495 -0.5134756 4.230092 657930
-1.1128594 -0.51186138 4.2421913 657930
1.0226743 -0.51221722 4.2487268 657930
1.0367591 -0.5121426 4.2405791 657930
1.0565058 -0.51336163 4.2291527 657930
-1.1336217 -0.48820707 4.2303033 657930
-1.1125489 -0.48685417 4.2424507 657930
1.0226908 -0.48758239 4.248796 657930
1.0367527 -0.48689532 4.2406626 657930
1.0562751 -0.48809892 4.2293658 657930
-1.1345701 -0.46166253 4.2298408 657930
-1.1125664 -0.46225533 4.2425189 657930
1.0227075 -0.46294668 4.2488642 657930
1.0365812 -0.46207261 4.2408419 657930
1.0566242 -0.46222919 4.2292466 657930
-1.1355991 -0.43661344 4.2293277 657930
-1.1125847 -0.43765551 4.2425861 657930
1.0227239 -0.43831021 4.2489328 657930
1.0365976 -0.43748257 4.2409101 657930
1.0567291 -0.4366706 4.2292681 657930
-1.1354412 -0.41177413 4.2294974 657930
-1.1126022 -0.41305497 4.2426548 657930
1.0227405 -0.41367298 4.2490015 657930
1.0366145 -0.41289181 4.2409787 657930
1.0565764 -0.41176799 4.2294345 657930
-1.1354594 -0.38724914 4.2295661 657930
-1.1124294 -0.38824379 4.2428327 657930
1.0227571 -0.38903493 4.2490706 657930
1.0366312 -0.38830036 4.2410474 657930
1.0565934 -0.38724333 4.2295032 657930
-1.1354774 -0.3627232 4.2296324 657930
-1.1124039 -0.36305106 4.2429285 657930
1.0227748 -0.36263609 4.2491441 657930
1.0363296 -0.3632386 4.2413015 657930
1.0566101 -0.36271793 4.2295709 657930
-1.1354954 -0.33819667 4.2297006 657930
-1.1126574 -0.33748993 4.2428627 657930
1.0227925 -0.33623642 4.249218 657930
1.0365596 -0.33778578 4.2412481 657930
1.0566273 -0.33819175 4.2296386 657930
-1.1355137 -0.31366926 4.2297692 657930
-1.1134871 -0.31202918 4.2424655 657930
1.022809 -0.31159586 4.2492867 657930
1.0370938 -0.31192616 4.2410226 657930
1.0566443 -0.31366473 4.2297077 657930
-1.1352689 -0.28793219 4.229991 657930
-1.1142226 -0.28646615 4.2421236 657930
1.0228256 -0.28695446 4.2493553 657930
1.0367005 -0.28641257 4.2413316 657930
1.0565053 -0.28770533 4.2298703 657930
-1.1358279 -0.26173469 4.2297521 657930
-1.1142406 -0.26186585 4.2421908 657930
1.0228422 -0.26231232 4.2494245 657930
1.0367173 -0.26181698 4.2414002 657930
1.0568507 -0.26148716 4.229754 657930
-1.1355705 -0.23657812 4.2299814 657930
-1.1142583 -0.23726477 4.242259 657930
1.0228586 -0.23766936 4.2494931 657930
1.036734 -0.23722054 4.241468 657930
1.0566978 -0.23657474 4.2299218 657930
-1.1355886 -0.21204741 4.2300477 657930
-1.1142761 -0.21266297 4.2423272 657930
1.0228753 -0.21302564 4.2495618 657930
1.0367509 -0.21262333 4.2415361 657930
1.0567149 -0.21204449 4.2299891 657930
-1.1356066 -0.18751599 4.2301154 657930
-1.1142939 -0.1880604 4.2423944 657930
1.0228918 -0.18838106 4.2496305 657930
1.0367674 -0.18802528 4.2416053 657930
1.0567318 -0.18751343 4.2300577 657930
-1.1356251 -0.16298378 4.2301836 657930
-1.1143118 -0.16345693 4.2424636 657930
1.0229083 -0.16373573 4.2496991 657930
1.0367844 -0.1634265 4.241673 657930
1.0567491 -0.16298158 4.2301259 657930
-1.1343139 -0.13825655 4.2310171 657930
-1.1130482 -0.13908745 4.243268 657930
1.0229262 -0.13732912 4.249773 657930
1.0368011 -0.13882692 4.2417426 657930
1.056766 -0.13844897 4.230195 657930
-1.1338444 -0.11339477 4.2313666 657930
-1.1128232 -0.11251349 4.2434821 657930
1.022944 -0.11092161 4.2498474 657930
1.036819 -0.11246933 4.241816 657930
1.0567832 -0.11391556 4.2302632 657930
-1.134443 -0.087189823 4.2311053 657930
-1.1128424 -0.086144634 4.243556 657930
1.0229605 -0.086273752 4.2499161 657930
1.0368371 -0.086110808 4.241889 657930
1.0581684 -0.087351777 4.2295461 657930
-1.1341805 -0.061354727 4.2313385 657930
-1.1128603 -0.061532844 4.2436233 657930
1.0229747 -0.065146394 4.2499752 657930
1.0368537 -0.061508693 4.2419577 657930
1.0583493 -0.0613284 4.2295237 657930
-1.1341988 -0.036813401 4.2314057 657930
-1.1128781 -0.036920294 4.243691 657930
1.0368704 -0.036905799 4.2420263 657930
1.0583662 -0.036797624 4.2295909 657930
-1.134217 -0.01227131 4.2314734 657930
-1.112896 -0.01230694 4.2437596 657930
1.0368873 -0.012302113 4.2420945 657930
1.0583833 -0.012266051 4.22966 657930
-1.1342349 0.012271571 4.2315412 657930
-1.1129137 0.012307202 4.2438269 657930
1.0369039 0.012302374 4.2421627 657930
1.0584004 0.012266311 4.2297277 657930
-1.1342531 0.036815234 4.2316084 657930
-1.1129317 0.036922127 4.2438951 657930
1.0369207 0.036907651 4.2422309 657930
1.0584173 0.036799468 4.2297955 657930
-1.1342713 0.061359689 4.2316771 657930
-1.1129495 0.061537839 4.2439632 657930
1.0369374 0.061513729 4.2422996 657930
1.0584342 0.061333399 4.2298636 657930
-1.1345717 0.087199785 4.231586 657930
-1.1129673 0.086154342 4.2440314 657930
1.036954 0.086120598 4.2423692 657930
1.0584527 0.087620653 4.2299366 657930
-1.086239 -0.8587696 4.2564278 789516
-1.0646567 -0.85833091 4.2688661 789516
0.98684776 -0.85875833 4.2683501 921102
1.0085089 -0.85864699 4.2558198 723723
-1.0862539 -0.83762062 4.2564878 657930
-1.0648513 -0.83683962 4.2688227 657930
0.98674732 -0.83732605 4.2684765 657930
1.0085233 -0.83750099 4.2558784 657930
-1.0860826 -0.81271899 4.2566652 657930
-1.0646894 -0.81178457 4.2689953 657930
0.98690039 -0.81236577 4.2684669 657930
1.0085393 -0.81282979 4.2559481 657930
-1.0862892 -0.78782892 4.2566252 657930
-1.0647064 -0.78703701 4.2690644 657930
0.98697138 -0.78718191 4.2685061 657930
1.0085557 -0.78815806 4.2560167 657930
-1.086172 -0.76292682 4.256772 657930
-1.0647234 -0.76228839 4.2691331 657930
0.98763657 -0.76253039 4.2681999 657930
1.0083919 -0.76317579 4.2561917 657930
-1.0862436 -0.73781049 4.2568107 657930
-1.0647407 -0.73753917 4.2692022 657930
0.98837352 -0.73730624 4.2678533 657930
1.0084809 -0.73792017 4.2562194 657930
-1.0863154 -0.71269405 4.2568493 657930
-1.0647578 -0.71278924 4.2692714 657930
0.98838949 -0.71256435 4.2679234 657930
1.0085697 -0.71266443 4.2562485 657930
-1.0864664 -0.68736112 4.2568426 657930
-1.064775 -0.68803841 4.2693396 657930
0.98840559 -0.68782121 4.2679925 657930
