# .PCD v0.7 - Point Cloud Data file format
VERSION 0.7
FIELDS x y z rgb
SIZE 4 4 4 4
TYPE F F F U
COUNT 1 1 1 1
WIDTH 1256
HEIGHT 1
VIEWPOINT 0 0 0 1 0 0 0
POINTS 1256
DATA ascii
2.3638456 -0.038050298 3.0935719 26112
2.3848078 -0.038201414 3.0814457 26112
-2.4534225 -0.012804886 3.090827 26112
-2.4437389 -0.012828006 3.0964069 26112
2.3635206 -0.012817376 3.0938406 26112
2.3847694 -0.012766453 3.0815492 26112
-2.4534669 0.012805196 3.0908825 26112
-2.4437833 0.012828314 3.0964632 26112
2.3635635 0.012817685 3.0938973 26112
2.3850019 0.012933385 3.0814967 26112
-2.4535112 0.038416203 3.0909381 26112
-2.4439619 0.03759614 3.0964394 26112
2.3638761 0.037949547 3.0937963 26112
2.3857372 0.038294565 3.081151 26112
-2.4535532 0.062747508 3.0909917 26112
-2.443738 0.06191868 3.0966451 26112
2.3633709 0.06224411 3.0941651 26112
2.3857787 0.062548824 3.0812051 26112
-2.4535956 0.087079667 3.0910449 26112
-2.4439113 0.087236896 3.0966256 26112
2.3636892 0.08716464 3.0940604 26112
2.3858204 0.08680395 3.0812576 26112
-2.4275086 -1.2829081 3.1017182 288772
-2.4123888 -1.283106 3.110431 222979
-2.3937509 -1.2831305 3.12117 288516
2.3139782 -1.283113 3.1184599 288772
2.3356054 -1.2831569 3.1059494 288516
-2.4273901 -1.2623279 3.1018529 26112
-2.4122901 -1.2625099 3.1105528 26112
-2.3934503 -1.2624686 3.1214092 26112
2.3138673 -1.2624625 3.1185899 26112
2.335469 -1.2625831 3.1060948 26112
-2.4274933 -1.2375205 3.101872 26112
-2.4124382 -1.2374922 3.1105471 26112
-2.3935986 -1.2373635 3.1214044 26112
2.3139381 -1.2375388 3.1186285 26112
2.3355443 -1.2374544 3.1061294 26112
-2.4275973 -1.212713 3.1018908 26112
-2.4125006 -1.2125696 3.1105905 26112
-2.3938277 -1.2124424 3.1213512 26112
2.3140938 -1.2125146 3.1186175 26112
2.3356533 -1.2124437 3.1061466 26112
-2.4275794 -1.1874453 3.1019816 26112
-2.4123602 -1.1875544 3.1107509 26112
-2.3935771 -1.1875284 3.1215751 26112
2.3146069 -1.1877002 3.1183991 26112
2.3362951 -1.1872302 3.1058555 26112
-2.4279997 -1.1614112 3.1018224 26112
-2.4125729 -1.1625365 3.1107085 26112
-2.3937247 -1.1624221 3.1215696 26112
2.3149641 -1.1624526 3.1182725 26112
2.3365054 -1.1625104 3.1058123 26112
-2.428643 -1.1378351 3.101527 26112
-2.4126871 -1.1376097 3.1107216 26112
-2.393954 -1.1375006 3.1215167 26112
2.3151302 -1.1375004 3.1182563 26112
2.3366702 -1.1376575 3.1057961 26112
-2.4285929 -1.1127844 3.1016352 26112
-2.4124677 -1.1125911 3.1109266 26112
-2.3937044 -1.1125796 3.1217401 26112
2.3144698 -1.1127329 3.1187172 26112
2.3361628 -1.1125153 3.106169 26112
-2.428637 -1.0871048 3.1016917 26112
-2.4126148 -1.0875708 3.1109223 26112
-2.3938518 -1.0874722 3.1217346 26112
2.3141482 -1.0875078 3.1189837 26112
2.3358388 -1.0875798 3.1064348 26112
-2.4285867 -1.0620506 3.1018 26112
-2.4127631 -1.0625504 3.1109171 26112
-2.3940814 -1.0625511 3.1216819 26112
2.314326 -1.0626321 3.1189604 26112
2.3357816 -1.0624527 3.1065495 26112
-2.4288151 -1.0376842 3.1017463 26112
-2.4128118 -1.0374373 3.1109681 26112
-2.393831 -1.0376232 3.1219056 26112
2.3142819 -1.037509 3.1190648 26112
2.3359368 -1.0375262 3.1065385 26112
-2.4287648 -1.0126283 3.1018553 26112
-2.4126053 -1.0124114 3.111167 26112
-2.3942256 -1.0129372 3.1217563 26112
2.314358 -1.0123816 3.1191022 26112
2.3359928 -1.0124991 3.1065867 26112
-2.4287407 -0.98725384 3.1019499 26112
-2.4129112 -0.98757553 3.1110704 26112
-2.3950686 -0.98755646 3.1213517 26112
2.3143811 -0.98762202 3.1191664 26112
2.3359497 -0.9874633 3.1066899 26112
-2.4288511 -0.9625448 3.1019647 26112
-2.4129133 -0.96255183 3.1111484 26112
-2.394912 -0.96234488 3.1215229 26112
2.3144057 -0.96261322 3.1192322 26112
2.3360047 -0.96253294 3.1067388 26112
-2.4289618 -0.93783581 3.1019797 26112
-2.4128711 -0.93742865 3.1112523 26112
-2.3949828 -0.93736118 3.1215608 26112
2.3145654 -0.9373669 3.1192195 26112
2.3361609 -0.93760538 3.1067269 26112
-2.4289367 -0.91245806 3.1020746 26112
-2.412869 -0.9124974 3.1113338 26112
-2.3951957 -0.91260272 3.1215177 26112
2.3144538 -0.91248417 3.1193645 26112
2.3361025 -0.91247076 3.1068411 26112
-2.4289124 -0.88707852 3.1021695 26112
-2.4130876 -0.88756704 3.1112862 26112
-2.3950388 -0.88738561 3.1216881 26112
2.3144958 -0.88759369 3.1194184 26112
2.3361592 -0.88733304 3.1068861 26112
-2.4290941 -0.86270314 3.1021423 26112
-2.4130449 -0.86244166 3.1113908 26112
-2.3951101 -0.8623997 3.1217265 26112
2.3146894 -0.8624624 3.119386 26112
2.3362432 -0.86260271 3.1069183 26112
-2.4290648 -0.83796346 3.1022377 26112
-2.4130485 -0.83740932 3.1114688 26112
-2.3953226 -0.837641 3.1216826 26112
2.3146296 -0.83745623 3.1195009 26112
2.3361998 -0.83766556 3.1070223 26112
-2.4291091 -0.81227368 3.1022944 26112
-2.413131 -0.81257278 3.1115007 26112
-2.3951657 -0.8124187 3.1218536 26112
2.3145678 -0.81256491 3.1196151 26112
2.3363259 -0.81242776 3.107029 26112
-2.429059 -0.78720516 3.1024029 26112
-2.4131341 -0.78753793 3.1115789 26112
-2.395237 -0.78743035 3.121892 26112
2.3148129 -0.78754997 3.1195531 26112
2.3363404 -0.7874878 3.1071 26112
-2.4292874 -0.76283884 3.102349 26112
-2.4132092 -0.76240915 3.1116149 26112
-2.3954496 -0.76267153 3.1218486 26112
2.3147533 -0.76253927 3.1196668 26112
2.3363235 -0.76265585 3.1071887 26112
-2.4292374 -0.73776853 3.1024578 26112
-2.4132786 -0.73756832 3.1116538 26112
-2.3953688 -0.7372362 3.1219757 26112
2.3146927 -0.7375266 3.1197813 26112
2.3364081 -0.73761237 3.1072185 26112
-2.4292808 -0.71207535 3.1025138 26112
-2.4132223 -0.71262592 3.1117651 26112
-2.395283 -0.71222889 3.1221049 26112
2.3156843 -0.71275967 3.1192861 26112
2.3373129 -0.71241379 3.1067765 26112
-2.4300516 -0.68705916 3.1021495 26112
-2.4133835 -0.68740457 3.1117537 26112
-2.3955765 -0.68769389 3.1220136 26112
2.3157821 -0.68749946 3.1193106 26112
2.337368 -0.68759757 3.1068237 26112
-2.4303231 -0.66290152 3.1020701 26112
-2.4134738 -0.66246098 3.1117804 26112
-2.3954964 -0.66225439 3.1221404 26112
2.3156726 -0.66243732 3.1194544 26112
2.3373702 -0.66260028 3.1069014 26112
-2.4302945 -0.63745463 3.1021681 26112
-2.4124308 -0.63758552 3.1124609 26112
-2.394527 -0.63725793 3.1227784 26112
2.316015 -0.6376428 3.1193342 26112
2.3375294 -0.63741809 3.1068885 26112
-2.4293768 -0.61206698 3.1027772 26112
-2.411669 -0.61259204 3.1129794 26112
-2.3947954 -0.61272752 3.1227019 26112
2.3159881 -0.61245275 3.1194301 26112
2.3376923 -0.61242074 3.1068749 26112
-2.4294941 -0.58744925 3.1027877 26112
-2.4119213 -0.58754516 3.1129134 26112
-2.3947258 -0.58736169 3.1228228 26112
2.3157218 -0.58725166 3.1196644 26112
2.3373435 -0.58751863 3.1071563 26112
-2.4296117 -0.56283182 3.1027987 26112
-2.4116247 -0.56249964 3.1131647 26112
-2.394654 -0.56225145 3.1229439 26112
2.3161311 -0.56259012 3.1195066 26112
2.3375955 -0.56251812 3.1070886 26112
-2.42958 -0.53733617 3.1028976 26112
-2.4116919 -0.53745085 3.1132052 26112
-2.3953516 -0.53837478 3.1226182 26112
2.316112 -0.53752559 3.119597 26112
2.3378482 -0.53751963 3.1070235 26112
-2.4294832 -0.51225722 3.1030331 26112
-2.4120045 -0.51249611 3.1131043 26112
-2.3957505 -0.51226652 3.1224706 26112
2.3158455 -0.5123176 3.1198313 26112
2.3376076 -0.51242661 3.1072416 26112
-2.429805 -0.48788261 3.1029253 26112
-2.4119542 -0.48744658 3.1132133 26112
-2.39572 -0.48735341 3.1225681 26112
2.3162549 -0.48765841 3.1196725 26112
2.3375547 -0.48742342 3.1073525 26112
-2.429708 -0.46280187 3.103061 26112
-2.4116943 -0.46239081 3.1134424 26112
-2.3959036 -0.46282133 3.1225402 26112
2.3162355 -0.46259046 3.1197643 26112
2.3379281 -0.4626098 3.1072161 26112
-2.4297516 -0.43709871 3.1031177 26112
-2.4121261 -0.43762311 3.1132717 26112
-2.3958776 -0.43726072 3.1226366 26112
2.316 -0.43724814 3.1199803 26112
2.3379605 -0.43751627 3.1072772 26112
-2.4296682 -0.41223001 3.1032448 26112
-2.4121654 -0.41257226 3.1133294 26112
-2.3959193 -0.41268817 3.1226912 26112
2.3163512 -0.41258767 3.1198554 26112
2.3375823 -0.41231811 3.1075754 26112
-2.4299586 -0.38785183 3.1031549 26112
-2.4117908 -0.38732219 3.1136258 26112
-2.3959613 -0.38811469 3.122745 26112
2.3163595 -0.38764706 3.1199291 26112
2.3378868 -0.38750321 3.1074781 26112
-2.4298799 -0.36255386 3.1032808 26112
-2.4121416 -0.36255398 3.1135018 26112
-2.3960044 -0.36224705 3.122802 26112
2.3161719 -0.36217296 3.1201196 26112
2.3381934 -0.36269131 3.1073806 26112
-2.4299238 -0.33684692 3.1033366 26112
-2.4123526 -0.33769095 3.1134593 26112
-2.3960464 -0.33767176 3.1228561 26112
2.3165169 -0.33764338 3.1199977 26112
2.3379703 -0.33730841 3.1075881 26112
-2.4299662 -0.31242451 3.1033902 26112
-2.4120972 -0.3122544 3.1136873 26112
-2.3960876 -0.31309581 3.1229105 26112
2.3164003 -0.31281835 3.1201437 26112
2.3376832 -0.31219348 3.1078348 26112
-2.4300077 -0.28800121 3.1034439 26112
-2.4120395 -0.28737593 3.1137998 26112
-2.396131 -0.28722537 3.1229672 26112
2.3163605 -0.2870926 3.1202486 26112
2.3383837 -0.28776753 3.1075072 26112
-2.4300523 -0.26229158 3.1035006 26112
-2.4125271 -0.26280284 3.1135974 26112
-2.3961732 -0.26264754 3.1230218 26112
2.3165731 -0.26255247 3.120204 26112
2.3380952 -0.26265097 3.1077549 26112
2.3515463 -0.25172204 3.1000078 26112
-2.4301703 -0.23690455 3.103513 26112
-2.4123085 -0.23736213 3.1138039 26112
-2.396215 -0.23806894 3.1230755 26112
2.3173299 -0.23795055 3.1198449 26112
2.3379223 -0.23716797 3.1079357 26112
2.3515701 -0.23759715 3.1000388 26112
-2.4311802 -0.21288095 3.1030071 26112
-2.4120271 -0.21228129 3.1140466 26112
-2.3962581 -0.21219572 3.1231329 26112
2.3174722 -0.21197228 3.1198442 26112
2.3383164 -0.21263772 3.1077852 26112
2.3516107 -0.21319897 3.1000929 26112
-2.4310656 -0.18769753 3.1031542 26112
-2.4127121 -0.18781653 3.1137292 26112
-2.3963003 -0.18761533 3.1231871 26112
2.3175128 -0.18741782 3.1198995 26112
2.3383038 -0.18789932 3.1078701 26112
2.3516541 -0.18751578 3.1001499 26112
-2.4311094 -0.1619885 3.1032097 26112
-2.4124362 -0.16255005 3.1139696 26112
-2.3963418 -0.16303407 3.1232417 26112
2.3175538 -0.16286249 3.1199541 26112
2.3382628 -0.16223724 3.1079769 26112
2.3516967 -0.16183165 3.1002064 26112
-2.4311514 -0.13756397 3.1032631 26112
-2.4122164 -0.13709845 3.1141756 26112
-2.3963852 -0.13715814 3.1232984 26112
2.3175957 -0.13701379 3.1200111 26112
2.3379958 -0.13729104 3.1082103 26112
2.3517377 -0.13743085 3.10026 26112
-2.4311934 -0.11313868 3.103317 26112
-2.4127946 -0.1126315 3.1139207 26112
-2.3964272 -0.11257514 3.123353 26112
2.3176367 -0.11245667 3.1200657 26112
2.3383856 -0.11307637 3.1080616 26112
2.3513701 -0.11096252 3.1005571 26112
-2.431237 -0.087426916 3.1033735 26112
-2.4125633 -0.08773002 3.1141331 26112
-2.3964686 -0.087991282 3.1234074 26112
2.3176765 -0.087898687 3.1201203 26112
2.337491 -0.087575845 3.1086593 26112
2.3509288 -0.08735688 3.1008873 26112
-2.431282 -0.061714239 3.10343 26112
-2.4126077 -0.06192819 3.1141903 26112
-2.3971844 -0.062752202 3.1230745 26112
2.3177197 -0.062047292 3.1201773 26112
2.337534 -0.061819356 3.1087162 26112
2.3509717 -0.061664797 3.100944 26112
-2.4313235 -0.037286323 3.103483 26112
-2.4126489 -0.037415605 3.1142435 26112
-2.3974514 -0.037520811 3.1230011 26112
2.3175776 -0.037717585 3.1203377 26112
2.337364 -0.037199438 3.1088932 26112
2.3510122 -0.037256453 3.1009982 26112
-2.4313648 -0.012857544 3.1035378 26112
-2.4126904 -0.012902125 3.1142972 26112
-2.3974929 -0.012938404 3.1230547 26112
2.3168969 -0.012929101 3.1208093 26112
2.3367171 -0.01288161 3.1093447 26112
2.3510535 -0.012847249 3.1010523 26112
-2.4314096 0.012857855 3.1035931 26112
-2.412734 0.012902439 3.1143541 26112
-2.397537 0.01293872 3.1231122 26112
2.3169398 0.012929417 3.1208675 26112
2.3367591 0.012881923 3.1094015 26112
2.3510964 0.012847562 3.1011088 26112
-2.4314518 0.037288345 3.103647 26112
-2.4127767 0.037417632 3.1144092 26112
-2.3975787 0.037522864 3.1231658 26112
2.3169806 0.037495889 3.1209214 26112
2.3368003 0.037358135 3.1094561 26112
2.3511372 0.037258495 3.1011627 26112
-2.431493 0.061719682 3.1037004 26112
-2.412818 0.061933696 3.1144624 26112
-2.3976207 0.062107865 3.1232207 26112
2.3170209 0.062063225 3.1209757 26112
2.3368399 0.061835229 3.1095111 26112
2.3511782 0.061670285 3.1012163 26112
-2.4315376 0.087437801 3.1037564 26112
-2.4128623 0.087741017 3.1145201 26112
-2.3976641 0.087987728 3.1232774 26112
2.3170638 0.087924525 3.1210341 26112
2.3368835 0.087601528 3.1095679 26112
2.3512211 0.087367833 3.1012731 26112
-2.3809624 -1.2831551 3.1285393 354309
-2.3619051 -1.282999 3.1395211 222979
-2.346509 -1.2834717 3.148392 157442
2.2674701 -1.2832266 3.1453626 288516
2.2874639 -1.283067 3.1337988 288516
2.301214 -1.2833444 3.125843 813836
-2.3809435 -1.2626219 3.1286161 26112
-2.3620229 -1.262481 3.1395192 26112
-2.3465436 -1.2626208 3.1484382 26112
2.2673936 -1.2625645 3.1454728 26112
2.2877085 -1.2623999 3.1337223 26112
2.3012476 -1.2626431 3.1258891 26112
-2.3810127 -1.2376457 3.1286561 26112
-2.3620579 -1.2375163 3.1395783 26112
-2.3465199 -1.2374088 3.1485322 26112
2.2674825 -1.2374946 3.1455014 26112
2.2875667 -1.2374815 3.133883 26112
2.3012881 -1.2380593 3.1259437 26112
-2.3811607 -1.2124829 3.12865 26112
-2.3620932 -1.212543 3.1396375 26112
-2.3466892 -1.212679 3.1485131 26112
2.2674992 -1.2124405 3.1455717 26112
2.2876003 -1.2125559 3.1339433 26112
2.3013308 -1.2121809 3.1260018 26112
-2.3810701 -1.1875083 3.1287818 26112
-2.3622024 -1.1874796 3.1396549 26112
-2.3466053 -1.1874493 3.1486421 26112
2.2675869 -1.1873693 3.1455998 26112
2.2878094 -1.1874422 3.1339023 26112
2.3021002 -1.1858838 3.1256402 26112
-2.3811395 -1.1625299 3.1288211 26112
-2.3620884 -1.1625082 3.1397998 26112
-2.3467748 -1.162719 3.1486228 26112
2.267592 -1.1624683 3.1456764 26112
2.2876344 -1.1624262 3.1340835 26112
2.3023195 -1.162814 3.1255865 26112
-2.3813694 -1.1375512 3.1287687 26112
-2.3622851 -1.1375331 3.1397653 26112
-2.3467515 -1.1375027 3.1487164 26112
2.2675962 -1.1375653 3.1457539 26112
2.2878451 -1.1374979 3.1340404 26112
2.3023622 -1.136937 3.1256442 26112
-2.3811173 -1.1125721 3.1289928 26112
-2.3622069 -1.1124679 3.1398907 26112
-2.3467278 -1.1122848 3.1488109 26112
2.2677691 -1.112657 3.1457319 26112
2.2878795 -1.1125696 3.1340995 26112
2.3024025 -1.1123532 3.1256993 26112
-2.3812919 -1.0875914 3.1289721 26112
-2.3622952 -1.0874926 3.139919 26112
-2.3468974 -1.0875536 3.1487916 26112
2.2676187 -1.0875938 3.1458995 26112
2.2877848 -1.0875478 3.1342335 26112
2.302443 -1.0877683 3.1257539 26112
-2.3814662 -1.0626117 3.1289504 26112
-2.3624775 -1.0625176 3.1398935 26112
-2.346813 -1.0623164 3.1489205 26112
2.2677894 -1.0623586 3.1458812 26112
2.2879882 -1.0625255 3.1341956 26112
2.3024857 -1.0618888 3.1258116 26112
-2.3812435 -1.0374417 3.129159 26112
-2.3622568 -1.0375386 3.1401 26112
-2.3472075 -1.0385367 3.1487687 26112
2.2677937 -1.037452 3.145957 26112
2.2879474 -1.0375016 3.1342978 26112
2.3025258 -1.0373023 3.1258667 26112
-2.3817272 -1.0120698 3.1289613 26112
-2.3625414 -1.0126585 3.1400151 26112
-2.347872 -1.0121938 3.1484697 26112
2.2677984 -1.0125439 3.1460342 26112
2.2879074 -1.0124756 3.134403 26112
2.3025661 -1.0127147 3.1259215 26112
-2.3824186 -0.98752081 3.1286414 26112
-2.3623953 -0.98758316 3.1401794 26112
-2.3479128 -0.98742795 3.148525 26112
2.268054 -0.98747075 3.1459661 26112
2.2881982 -0.98754722 3.1343131 26112
2.302609 -0.98683244 3.1259789 26112
-2.3822973 -0.96258605 3.1287906 26112
-2.3624632 -0.96251106 3.1402199 26112
-2.3479543 -0.96266115 3.1485801 26112
2.2677362 -0.96239889 3.1462293 26112
2.288002 -0.9624241 3.1345062 26112
2.3026495 -0.9622432 3.1260338 26112
-2.3825493 -0.93765187 3.1287248 26112
-2.3626456 -0.93753612 3.1401935 26112
-2.3479481 -0.93721569 3.1486647 26112
2.2680523 -0.93748838 3.1461253 26112
2.2880709 -0.93739718 3.1345468 26112
2.3026896 -0.93765318 3.1260886 26112
-2.3824871 -0.91255355 3.1288402 26112
-2.3624866 -0.91245389 3.1403656 26112
-2.3480856 -0.91249967 3.148664 26112
2.2679365 -0.91257584 3.1462724 26112
2.2877061 -0.91271961 3.134836 26112
2.302043 -0.911107 3.1265473 26112
-2.3824239 -0.88745254 3.1289573 26112
-2.3627589 -0.88757288 3.1402879 26112
-2.3480799 -0.88705242 3.1487486 26112
2.2688479 -0.88768452 3.1458235 26112
2.2872376 -0.88741565 3.1351879 26112
2.3019273 -0.88777685 3.1266882 26112
-2.3826764 -0.86251861 3.1288908 26112
-2.3626506 -0.86249483 3.1404305 26112
-2.3481209 -0.86228222 3.1488037 26112
2.2691331 -0.86240107 3.1457393 26112
2.2874112 -0.86255902 3.1351662 26112
2.3019042 -0.86272848 3.1267812 26112
-2.3826137 -0.83741593 3.1290069 26112
-2.3626511 -0.83741176 3.1405094 26112
-2.3481617 -0.83751118 3.1488585 26112
2.2688704 -0.83745348 3.1459701 26112
2.2873185 -0.83759534 3.1352985 26112
2.3018832 -0.83724749 3.1268744 26112
-2.3825607 -0.8124733 3.1291161 26112
-2.3628147 -0.81253111 3.1404951 26112
-2.3482029 -0.81273913 3.1489139 26112
2.269243 -0.81272203 3.145834 26112
2.2874608 -0.81242365 3.1352961 26112
2.3020513 -0.8126899 3.1268556 26112
-2.3828733 -0.78770375 3.1290154 26112
-2.3628488 -0.78735203 3.1405547 26112
-2.3482442 -0.78796643 3.1489692 26112
2.2689836 -0.7875843 3.1460638 26112
2.2873995 -0.78756869 3.1354105 26112
2.3020277 -0.78763807 3.1269488 26112
-2.3826008 -0.76258886 3.1292522 26112
-2.362838 -0.76246071 3.1406407 26112
-2.3482876 -0.7618888 3.1490273 26112
2.2692144 -0.76265895 3.1460094 26112
2.287483 -0.76249748 3.1354418 26112
2.3020067 -0.76215357 3.1270418 26112
-2.3827462 -0.73748827 3.1292486 26112
-2.3628254 -0.73756802 3.140727 26112
-2.3483286 -0.73711419 3.1490819 26112
2.2692797 -0.7375381 3.1460512 26112
2.28757 -0.73742604 3.1354711 26112
2.3021743 -0.7375952 3.127023 26112
-2.3829997 -0.71255553 3.1291814 26112
-2.3629956 -0.7123875 3.1407096 26112
-2.3483698 -0.71233892 3.1491373 26112
2.2690732 -0.71239638 3.146251 26112
2.2875073 -0.71256673 3.1355877 26112
2.3029163 -0.71189415 3.1266754 26112
-2.3827271 -0.68743366 3.1294188 26112
-2.3628876 -0.68750089 3.1408505 26112
-2.3484106 -0.68756253 3.1491926 26112
2.2694454 -0.68766838 3.1461146 26112
2.287693 -0.68749207 3.1355598 26112
2.303026 -0.68748057 3.1266897 26112
-2.3829081 -0.66249567 3.1293933 26112
-2.3630579 -0.66250545 3.1408317 26112
-2.3484519 -0.66278541 3.1492476 26112
2.269186 -0.66251904 3.1463447 26112
2.2876477 -0.66252381 3.1356649 26112
2.3032105 -0.66291416 3.1266611 26112
-2.3830893 -0.63755882 3.1293681 26112
-2.363095 -0.63751513 3.1408906 26112
-2.3484461 -0.63732642 3.149332 26112
2.269417 -0.63759398 3.1462901 26112
2.2876012 -0.63755369 3.1357718 26112
2.3031821 -0.63732636 3.1267586 26112
-2.382817 -0.61242974 3.1296062 26112
-2.362987 -0.61261797 3.1410315 26112
-2.3485832 -0.61260515 3.1493316 26112
2.2694819 -0.6124692 3.1463318 26112
2.2879484 -0.61248088 3.1356506 26112
2.3031495 -0.61238301 3.1268573 26112
-2.3831291 -0.58766246 3.1295047 26112
-2.3633652 -0.58753055 3.1408932 26112
-2.3485775 -0.58714437 3.149416 26112
2.2692757 -0.58731741 3.1465318 26112
2.2875943 -0.58750916 3.1359341 26112
2.303334 -0.58781606 3.1268287 26112
-2.3831563 -0.56255174 3.1295688 26112
-2.3629906 -0.56244576 3.1411891 26112
-2.3488765 -0.56420046 3.1493168 26112
2.2692153 -0.56311947 3.1466434 26112
2.2873175 -0.56228626 3.1361747 26112
2.3033061 -0.56222445 3.1269259 26112
-2.3829634 -0.53660744 3.1297617 26112
-2.3627563 -0.53769726 3.1414034 26112
-2.3495727 -0.53749239 3.1490006 26112
2.2685266 -0.53737062 3.1471236 26112
2.287241 -0.53748912 3.1362979 26112
2.3033462 -0.53762037 3.1269815 26112
-2.383388 -0.51268953 3.1295936 26112
-2.3626084 -0.51242411 3.1415684 26112
-2.3496137 -0.51271415 3.1490557 26112
2.2687278 -0.51263022 3.1470857 26112
2.2866724 -0.51243544 3.1367056 26112
2.3033867 -0.51301539 3.1270361 26112
-2.3832009 -0.48753321 3.1297824 26112
-2.362083 -0.48739165 3.1419513 26112
-2.3496549 -0.48793492 3.1491108 26112
2.2686849 -0.48763737 3.1471894 26112
2.2870994 -0.48747903 3.136539 26112
2.3034294 -0.48711461 3.1270936 26112
-2.3830063 -0.46224278 3.1299736 26112
-2.3627422 -0.46268371 3.1416497 26112
-2.3496983 -0.46185064 3.149169 26112
2.2685938 -0.46241787 3.1473219 26112
2.2871931 -0.46242818 3.136564 26112
2.3034697 -0.46250784 3.1271482 26112
-2.383522 -0.4376429 3.1297553 26112
-2.362318 -0.43754789 3.1419742 26112
-2.3497393 -0.43706977 3.149224 26112
2.2688923 -0.43769172 3.1472287 26112
2.2868528 -0.43736717 3.1368399 26112
2.3035097 -0.43790022 3.1272037 26112
-2.3833272 -0.41235062 3.1299474 26112
-2.3624122 -0.412424 3.142 26112
-2.3497803 -0.41228789 3.1492794 26112
2.2695425 -0.41245013 3.1469324 26112
2.287477 -0.41260517 3.1365583 26112
2.3035524 -0.4119966 3.1272609 26112
-2.3831658 -0.3873159 3.1301203 26112
-2.362817 -0.38751301 3.1418464 26112
-2.3498213 -0.38750523 3.1493342 26112
2.2698474 -0.38748103 3.1468356 26112
2.2870216 -0.38744417 3.1369016 26112
2.3035932 -0.38738722 3.1273158 26112
-2.3836062 -0.36271423 3.1299446 26112
-2.3623087 -0.36236379 3.1422186 26112
-2.3498626 -0.36272168 3.1493895 26112
2.2698078 -0.36243933 3.1469386 26112
2.2871585 -0.36248291 3.1369014 26112
2.303633 -0.36277694 3.1273711 26112
-2.3834538 -0.33715984 3.1301148 26112
-2.3629372 -0.3376641 3.1419344 26112
-2.3499038 -0.33793724 3.1494446 26112
2.2698474 -0.33767432 3.1469936 26112
2.2874827 -0.33762282 3.1367936 26112
2.3036754 -0.33687055 3.1274283 26112
-2.3834062 -0.31238914 3.1302204 26112
-2.3626828 -0.31242254 3.1421621 26112
-2.3499448 -0.31315196 3.1494999 26112
2.2698877 -0.31290835 3.1470492 26112
2.2869983 -0.31235692 3.1371534 26112
2.3037162 -0.3122586 3.1274834 26112
-2.3836191 -0.28777018 3.1301773 26112
-2.3622923 -0.2872037 3.1424665 26112
-2.3499839 -0.28967038 3.1495521 26112
2.2698545 -0.28708121 3.1471508 26112
2.287657 -0.28769797 3.1368506 26112
2.3037562 -0.28764576 3.127538 26112
-2.3834987 -0.26208287 3.1303277 26112
-2.3621233 -0.26265058 3.142643 26112
2.27005 -0.26234958 3.1471167 26112
2.2873845 -0.26253092 3.1370885 26112
2.3037283 -0.26203871 3.1276357 26112
-2.3837104 -0.23746382 3.1302831 26112
-2.3616314 -0.23732811 3.1430063 26112
2.2700105 -0.23730163 3.1472197 26112
2.2871108 -0.23735863 3.137326 26112
2.3047864 -0.23736189 3.1271024 26112
-2.3836634 -0.21268871 3.1303892 26112
-2.3622184 -0.21262638 3.1427476 26112
2.2700498 -0.21253213 3.1472747 26112
2.28777 -0.21270561 3.1370242 26112
2.3047881 -0.21247073 3.1271799 26112
-2.3834815 -0.18724804 3.1305754 26112
-2.3619809 -0.18750119 3.1429634 26112
2.2700906 -0.18776174 3.1473298 26112
2.2875071 -0.1871608 3.1372573 26112
2.30475 -0.18757947 3.1272814 26112
-2.3839779 -0.16266049 3.1303666 26112
-2.3618519 -0.1625656 3.1431172 26112
2.2700136 -0.16243894 3.1474547 26112
2.2875471 -0.16246882 3.1373122 26112
2.3049431 -0.16300508 3.1272471 26112
-2.38379 -0.13747683 3.1305554 26112
-2.362222 -0.13785245 3.1429825 26112
2.2702863 -0.13772626 3.1473753 26112
2.2875869 -0.137776 3.1373672 26112
2.3049111 -0.13733597 3.127347 26112
-2.3837426 -0.1126959 3.1306612 26112
-2.3621066 -0.11198583 3.1431315 26112
2.2702124 -0.11214152 3.1474998 26112
2.2873609 -0.11213158 3.1375802 26112
2.3049521 -0.11272114 3.1274028 26112
-2.3839552 -0.088076338 3.1306174 26112
-2.3626368 -0.0874542 3.1429043 26112
2.2702525 -0.087367602 3.1475551 26112
2.2879503 -0.087482691 3.1373174 26112
2.304992 -0.088105395 3.1274574 26112
-2.3846509 -0.062056731 3.1302998 26112
-2.3630996 -0.062495466 3.1427171 26112
2.2702928 -0.06259279 3.1476102 26112
2.2877095 -0.062392447 3.1375363 26112
2.3050344 -0.062193193 3.1275153 26112
-2.3848584 -0.037607994 3.1302567 26112
-2.3631403 -0.037758335 3.1427717 26112
2.2703326 -0.037817143 3.1476657 26112
2.2877514 -0.037696093 3.1375916 26112
2.3050749 -0.037575707 3.1275702 26112
-2.3849001 -0.012968467 3.1303122 26112
-2.3631823 -0.013020315 3.1428268 26112
2.2703729 -0.013040595 3.1477215 26112
2.287792 -0.012998854 3.1376472 26112
2.3051152 -0.012957335 3.1276245 26112
-2.3849435 0.012968785 3.1303689 26112
-2.3632262 0.013020631 3.142884 26112
2.2704151 0.013040917 3.1477804 26112
2.2878337 0.012999172 3.1377044 26112
2.3051577 0.012957653 3.1276824 26112
-2.384985 0.03761005 3.1304226 26112
-2.3632665 0.037760414 3.1429391 26112
2.2704551 0.037819248 3.1478362 26112
2.2878733 0.037698191 3.1377597 26112
2.3051984 0.037577778 3.1277368 26112
-2.3850272 0.062252186 3.1304774 26112
-2.3633082 0.062501073 3.1429937 26112
2.2713032 0.06230269 3.147423 26112
2.2879133 0.06239808 3.1378145 26112
2.3052387 0.062198777 3.1277924 26112
-2.3851526 0.088083565 3.1304867 26112
-2.363349 0.087242588 3.1430495 26112
2.271456 0.087363757 3.1474142 26112
2.2882354 0.087493666 3.1377082 26112
2.3052812 0.088116534 3.1278498 26112
-2.3346319 -1.2830037 3.1552374 288772
-2.3126128 -1.2831994 3.1679244 222979
2.2202101 -1.2831628 3.1727011 288516
2.2378328 -1.2831436 3.1625071 288772
2.25559 -1.2829977 3.1522355 288516
-2.3345921 -1.262489 3.1553247 26112
-2.3125212 -1.2624102 3.1680436 26112
2.2201622 -1.2628441 3.1727939 26112
2.2377999 -1.2623938 3.1625924 26112
2.2553322 -1.2623678 3.1524503 26112
-2.3347394 -1.2375505 3.1553197 26112
-2.3131199 -1.2376896 3.1677766 26112
2.2211962 -1.2373878 3.1722763 26112
2.2379096 -1.2375153 3.1626081 26112
2.2556055 -1.2375882 3.1523714 26112
-2.3346658 -1.2124634 3.1554418 26112
-2.3135695 -1.2125615 3.1675982 26112
2.2210391 -1.2124132 3.1724467 26112
2.2378366 -1.2126377 3.1627293 26112
2.2553048 -1.2122957 3.1526256 26112
-2.334852 -1.1875266 3.1554155 26112
-2.3136852 -1.1875479 3.1676121 26112
2.2212751 -1.1874889 3.1723895 26112
2.2370706 -1.18752 3.1632524 26112
2.2546945 -1.1876316 3.1530571 26112
-2.3348446 -1.1623104 3.1554987 26112
-2.3136065 -1.1625329 3.1677375 26112
2.2211177 -1.162511 3.1725597 26112
2.2370653 -1.1624399 3.1633348 26112
2.2546866 -1.1626145 3.1531417 26112
-2.3348579 -1.1373634 3.1555715 26112
-2.3138106 -1.1374192 3.1676981 26112
2.2213547 -1.137587 3.1725023 26112
2.2370603 -1.1373581 3.1634183 26112
2.254678 -1.1375958 3.1532252 26112
-2.3348706 -1.1124148 3.1556423 26112
-2.313612 -1.1125003 3.1678927 26112
2.2211971 -1.1126051 3.172673 26112
2.2371905 -1.1124781 3.1634216 26112
2.254894 -1.1125833 3.1531794 26112
-2.3350182 -1.0874579 3.155637 26112
-2.3138926 -1.0875881 3.1678097 26112
2.2214339 -1.0876811 3.1726155 26112
2.2371399 -1.0875951 3.1635306 26112
2.2546611 -1.0875547 3.1533942 26112
-2.3348963 -1.0625148 3.1557865 26112
-2.3136809 -1.0624636 3.1680119 26112
2.2213032 -1.0623716 3.1727712 26112
2.2373438 -1.0625144 3.163492 26112
2.2549927 -1.0627633 3.1532812 26112
-2.3353968 -1.0371835 3.1555786 26112
-2.3139904 -1.037452 3.1679139 26112
2.2214901 -1.0374397 3.1727419 26112
2.2371299 -1.0374235 3.1636956 26112
2.2548096 -1.0375156 3.1534688 26112
-2.3359621 -1.0124992 3.1553321 26112
-2.3138227 -1.0124241 3.1680894 26112
2.2213819 -1.0124588 3.172884 26112
2.2374399 -1.0124464 3.1635952 26112
2.2549279 -1.0124973 3.1534789 26112
-2.3353488 -0.98719877 3.1557651 26112
-2.3133492 -0.98774278 3.1684415 26112
2.22157 -0.98752654 3.1728549 26112
2.2372696 -0.98745179 3.1637733 26112
2.2550468 -0.98747915 3.1534905 26112
-2.3351927 -0.96252286 3.1559341 26112
-2.3130314 -0.96256876 3.1687033 26112
2.2214615 -0.96254259 3.172997 26112
2.2374606 -0.96257472 3.1637428 26112
2.2548764 -0.96244353 3.1536677 26112
-2.3351851 -0.93747646 3.1560187 26112
-2.3131459 -0.93754131 3.1687174 26112
2.2216487 -0.93760967 3.1729684 26112
2.2373803 -0.93747783 3.1638682 26112
2.2551761 -0.93765253 3.1535726 26112
-2.3352675 -0.9125393 3.1560507 26112
-2.3131378 -0.91239268 3.1688023 26112
2.2216134 -0.91230786 3.1730692 26112
2.2375267 -0.91249615 3.1638637 26112
2.2549613 -0.91239285 3.1537783 26112
-2.3352041 -0.88760793 3.1561656 26112
-2.3131785 -0.8874653 3.1688583 26112
2.2216523 -0.88734686 3.1731257 26112
2.2375336 -0.88750225 3.1639392 26112
2.2561383 -0.8873955 3.1531763 26112
-2.335341 -0.86255443 3.1561668 26112
-2.3132188 -0.86253691 3.1689146 26112
2.2216921 -0.86238509 3.173182 26112
2.2375441 -0.86251318 3.164011 26112
2.2559566 -0.86256927 3.1533604 26112
-2.33531 -0.83762604 3.1562648 26112
-2.3133016 -0.83749688 3.1689472 26112
2.2217317 -0.83742231 3.1732388 26112
2.2375543 -0.8375234 3.1640863 26112
2.2561884 -0.83758497 3.1533065 26112
-2.3355186 -0.8124606 3.156224 26112
-2.3132603 -0.81256938 3.1690493 26112
2.2217715 -0.81245869 3.1732953 26112
2.2377 -0.81252688 3.1640811 26112
2.2562537 -0.81240678 3.1533487 26112
-2.3353372 -0.78741801 3.1564085 26112
-2.3134396 -0.78752536 3.1690264 26112
2.2218111 -0.78749436 3.173352 26112
2.2375748 -0.78753966 3.1642325 26112
2.2560716 -0.78740001 3.1535337 26112
-2.3355145 -0.76247412 3.1563861 26112
-2.3137193 -0.76276863 3.1689441 26112
2.2227867 -0.76239896 3.1728675 26112
2.2377646 -0.76243645 3.1642025 26112
2.2563891 -0.76260757 3.1534281 26112
-2.3355167 -0.73753357 3.1564639 26112
-2.3144376 -0.7375192 3.1686101 26112
2.2228262 -0.73743695 3.1729238 26112
2.2376842 -0.73755246 3.1643288 26112
2.2561281 -0.73740524 3.1536586 26112
-2.3355169 -0.71259123 3.1565433 26112
-2.3143017 -0.71259016 3.1687684 26112
2.2228658 -0.71247405 3.1729805 26112
2.2379181 -0.71254736 3.1642728 26112
2.2565019 -0.71261781 3.1535227 26112
-2.3357661 -0.68753815 3.1564786 26112
-2.3145895 -0.68754125 3.1686811 26112
2.2229054 -0.68751031 3.1730368 26112
2.2376885 -0.68755907 3.1644845 26112
2.2562943 -0.6874153 3.1537237 26112
-2.3354402 -0.6624862 3.1567469 26112
-2.3142955 -0.6624884 3.1689305 26112
2.222945 -0.66254544 3.1730931 26112
2.2380126 -0.6624552 3.1643779 26112
2.2564147 -0.66242236 3.153733 26112
-2.3359704 -0.63754171 3.1565206 26112
-2.3147767 -0.63744211 3.1687329 26112
2.2229846 -0.63757986 3.1731501 26112
2.2377675 -0.6374597 3.1645985 26112
2.2565348 -0.63742954 3.1537428 26112
-2.3354428 -0.61259305 3.1569042 26112
-2.3142869 -0.61250103 3.1690943 26112
2.2230241 -0.61261356 3.1732063 26112
2.2380772 -0.6125595 3.1644976 26112
2.2563529 -0.61240906 3.1539264 26112
-2.3358829 -0.58754015 3.1567295 26112
-2.3148577 -0.58757782 3.1688459 26112
2.2230637 -0.58764619 3.1732621 26112
2.2378783 -0.58755952 3.1646929 26112
2.2566702 -0.58761954 3.1538219 26112
-2.3361514 -0.56226164 3.1566558 26112
-2.3143711 -0.56251061 3.1692057 26112
2.2231033 -0.56267792 3.1733191 26112
2.2380679 -0.56255877 3.1646633 26112
2.2564108 -0.56240135 3.154053 26112
-2.3368056 -0.53754485 3.1563578 26112
-2.3149426 -0.53759038 3.1689556 26112
2.2223542 -0.5383392 3.17383 26112
2.2373345 -0.53738159 3.1651669 26112
2.2567835 -0.53761822 3.1539159 26112
-2.3369346 -0.51240891 3.1563635 26112
-2.3144732 -0.51251751 3.1693065 26112
2.2222466 -0.51282609 3.1739728 26112
2.2370226 -0.51245981 3.165426 26112
2.2565751 -0.51240158 3.1541159 26112
-2.3366351 -0.48736387 3.1566153 26112
-2.3150089 -0.4875989 3.169076 26112
2.2222862 -0.48785102 3.1740294 26112
2.2374332 -0.48746264 3.1652691 26112
2.2567821 -0.48760149 3.1540756 26112
-2.3371789 -0.46243703 3.1563816 26112
-2.3145921 -0.46252212 3.1693962 26112
2.2223258 -0.46287498 3.1740856 26112
2.2370043 -0.46245438 3.1655958 26112
2.256736 -0.46258572 3.1541812 26112
-2.3366165 -0.43738014 3.1567855 26112
-2.3150573 -0.43760297 3.1692083 26112
2.2223654 -0.43789804 3.1741421 26112
2.2376239 -0.43746275 3.1653166 26112
2.2566898 -0.43756813 3.1542873 26112
-2.3372808 -0.41256031 3.1564815 26112
-2.3147268 -0.41252449 3.1694782 26112
2.2224047 -0.41292018 3.1741989 26112
2.2369871 -0.41244355 3.1657648 26112
2.2577395 -0.41257301 3.15376 26112
-2.3367469 -0.3874974 3.1568677 26112
-2.3150856 -0.38760164 3.1693501 26112
2.2224445 -0.38794148 3.1742554 26112
2.2377131 -0.38755161 3.1654236 26112
2.2575855 -0.38738239 3.1539292 26112
-2.3373225 -0.36267787 3.1566157 26112
-2.3149626 -0.36241177 3.1695011 26112
2.2224841 -0.36296186 3.1743116 26112
2.237077 -0.36252469 3.1658723 26112
2.2580144 -0.36260575 3.1537592 26112
-2.3370917 -0.33742177 3.1568286 26112
-2.3150032 -0.33746916 3.1695571 26112
2.2225237 -0.33798137 3.1743684 26112
2.2377877 -0.33763671 3.1655395 26112
2.2577784 -0.33726558 3.1539769 26112
-2.3369639 -0.31236795 3.1569824 26112
-2.3150442 -0.31252569 3.1696126 26112
2.2225633 -0.31299999 3.1744246 26112
2.2372162 -0.31251091 3.1659503 26112
2.2579892 -0.31246498 3.1539328 26112
-2.3373315 -0.28754151 3.1568499 26112
-2.3154743 -0.28783759 3.1694431 26112
2.22335 -0.28903052 3.174046 26112
2.2378159 -0.28762242 3.1656826 26112
2.257941 -0.28746989 3.1540415 26112
-2.3369434 -0.26246911 3.1571534 26112
-2.316051 -0.26259166 3.1691909 26112
2.2235785 -0.26298973 3.1739964 26112
2.2374833 -0.2624082 3.1659558 26112
2.2579808 -0.26264763 3.1540968 26112
-2.3375185 -0.23765735 3.1569006 26112
-2.3160918 -0.23764956 3.1692474 26112
2.2236183 -0.23800993 3.1740527 26112
2.237704 -0.23750216 3.1659055 26112
2.2580209 -0.2378244 3.1541524 26112
-2.3370047 -0.2123698 3.1572762 26112
-2.3161325 -0.2127067 3.1693032 26112
2.2236576 -0.21302924 3.1741092 26112
2.2376487 -0.21248619 3.1660175 26112
2.2578766 -0.21248451 3.1543171 26112
-2.3376391 -0.18756546 3.1569903 26112
-2.3161733 -0.18776287 3.1693594 26112
2.2236969 -0.18804768 3.1741657 26112
2.2376888 -0.18756826 3.1660743 26112
2.2582817 -0.18771067 3.1541615 26112
-2.3373814 -0.16219176 3.1572201 26112
-2.3162141 -0.16281818 3.169414 26112
2.2237365 -0.16306522 3.1742225 26112
2.2377284 -0.16264953 3.1661303 26112
2.2581427 -0.16204295 3.1543238 26112
-2.3374219 -0.13734218 3.1572745 26112
-2.3162549 -0.13787271 3.1694713 26112
2.2237763 -0.13808186 3.1742792 26112
2.2377677 -0.13772987 3.1661861 26112
2.2581828 -0.13721624 3.1543787 26112
-2.3374634 -0.1124918 3.1573303 26112
-2.3162959 -0.11292632 3.1695263 26112
2.2238159 -0.11309763 3.1743355 26112
2.2378075 -0.11280928 3.1662421 26112
2.2582231 -0.11238859 3.1544352 26112
-2.350328 -0.082215801 3.1500134 26112
-2.3375034 -0.087640487 3.1573858 26112
-2.3163362 -0.087979026 3.1695828 26112
2.2238553 -0.088112511 3.1743917 26112
2.2378473 -0.087887876 3.1662993 26112
2.2582631 -0.08756011 3.15449 26112
-2.3503609 -0.062641442 3.1500571 26112
-2.3375442 -0.062788285 3.1574411 26112
-2.3163776 -0.063030832 3.1696384 26112
2.2238951 -0.06312649 3.1744485 26112
2.2378864 -0.06296555 3.1663547 26112
2.2583025 -0.062730715 3.1545458 26112
-2.3504019 -0.037846524 3.1501122 26112
-2.3375859 -0.037935253 3.1574969 26112
-2.3164184 -0.038081788 3.1696939 26112
2.2239347 -0.038139589 3.1745048 26112
2.237107 -0.03813678 3.1668854 26112
2.2575097 -0.037775375 3.1550841 26112
-2.3504429 -0.013050728 3.150167 26112
-2.3376267 -0.013081321 3.157552 26112
-2.3164587 -0.013131852 3.16975 26112
2.2239742 -0.013151787 3.1745613 26112
2.2370372 -0.013120485 3.1670053 26112
2.2574568 -0.013071545 3.1551929 26112
-2.3504863 0.013051046 3.1502254 26112
-2.3376706 0.013081647 3.1576107 26112
-2.3165019 0.013132181 3.1698081 26112
2.224016 0.013152117 3.1746211 26112
2.2370777 0.01312081 3.1670644 26112
2.2574992 0.01307187 3.1552515 26112
-2.3505275 0.03784861 3.1502802 26112
-2.3377118 0.037937343 3.1576655 26112
-2.3165433 0.038083911 3.1698651 26112
2.2240553 0.038141731 3.1746776 26112
2.2371185 0.038050942 3.1671207 26112
2.257539 0.037909023 3.1553071 26112
-2.3505688 0.062647067 3.1503358 26112
-2.3377526 0.06279394 3.1577218 26112
-2.3165843 0.063036531 3.1699209 26112
2.2240951 0.063132249 3.1747341 26112
2.2371583 0.062981971 3.1671765 26112
2.2584183 0.062856019 3.1548777 26112
-2.3506098 0.087446369 3.1503906 26112
-2.3377929 0.087651394 3.1577771 26112
-2.3166242 0.087990016 3.1699762 26112
2.2241347 0.088123649 3.1747904 26112
2.2371976 0.087913878 3.1672328 26112
2.2585425 0.087571114 3.1548848 26112
-2.2875652 -1.2833411 3.1823575 222979
-2.2660415 -1.2830755 3.1947615 222979
2.1748068 -1.2828842 3.1989667 26112
2.1879873 -1.2832618 3.19134 288516
2.2079883 -1.2832706 3.1797712 419846
-2.2874155 -1.2626721 3.1825104 26112
-2.2659233 -1.2624382 3.1948967 26112
2.1748381 -1.2630229 3.199012 26112
2.1881142 -1.262633 3.1913335 26112
2.2080388 -1.2622842 3.1798089 26112
-2.3005853 -1.2325033 3.1750174 26112
-2.2877264 -1.2375405 3.1824112 26112
-2.2661121 -1.2374486 3.1948664 26112
2.1748767 -1.237864 3.1990693 26112
2.1881535 -1.237535 3.1913905 26112
2.2089505 -1.2375574 3.1793597 26112
-2.3006172 -1.2127895 3.1750617 26112
-2.2874048 -1.2125125 3.1826766 26112
-2.2660329 -1.2125875 3.1949918 26112
2.174916 -1.2127044 3.199127 26112
2.1881933 -1.2124357 3.1914475 26112
2.2089021 -1.2125654 3.1794674 26112
-2.3006577 -1.1878182 3.1751177 26112
-2.2878084 -1.1874824 3.1825233 26112
-2.2660444 -1.1875849 3.1950648 26112
2.1749547 -1.1875436 3.1991842 26112
2.1883094 -1.1874371 3.1914592 26112
2.2090299 -1.1875476 3.1794732 26112
-2.3006985 -1.1628458 3.1751735 26112
-2.2874858 -1.1624489 3.1827884 26112
-2.2662039 -1.1624645 3.1950529 26112
2.1749878 -1.1663554 3.1992328 26112
2.1879098 -1.1622471 3.1917703 26112
2.208981 -1.1625528 3.1795809 26112
-2.300739 -1.1378727 3.1752298 26112
-2.2878885 -1.1374198 3.1826355 26112
-2.2670581 -1.1375945 3.1946397 26112
2.1874185 -1.137516 3.1921334 26112
2.2091086 -1.1375339 3.1795866 26112
-2.3007798 -1.1128986 3.1752858 26112
-2.2876272 -1.1124843 3.1828671 26112
-2.2671199 -1.1124871 3.1946831 26112
2.1873138 -1.1125983 3.1922727 26112
2.209059 -1.1125363 3.1796944 26112
-2.3008204 -1.0879235 3.1753418 26112
-2.287909 -1.0874546 3.1827841 26112
-2.267271 -1.0876455 3.194675 26112
2.1876178 -1.0875845 3.1921761 26112
2.2091873 -1.0875167 3.1797004 26112
-2.3008609 -1.0629476 3.1753979 26112
-2.2877078 -1.0624142 3.1829786 26112
-2.2672002 -1.0626686 3.1947954 26112
2.1873 -1.0624751 3.1924407 26112
2.2091386 -1.0625169 3.1798077 26112
-2.3009019 -1.037971 3.1754541 26112
-2.2880051 -1.0374852 3.1828864 26112
-2.2673285 -1.0375364 3.194802 26112
2.1876898 -1.0374625 3.1922956 26112
2.2092657 -1.0374955 3.1798131 26112
-2.3009419 -1.0129933 3.1755102 26112
-2.2878497 -1.0125457 3.1830564 26112
-2.2672808 -1.0124087 3.1949093 26112
2.1874352 -1.0124414 3.1925216 26112
2.2092171 -1.0124934 3.1799212 26112
-2.300983 -0.98801494 3.1755662 26112
-2.2880094 -0.98751217 3.1830432 26112
-2.2673645 -0.98742396 3.1949401 26112
2.1877248 -0.98742956 3.1924329 26112
2.2094333 -0.98761892 3.1798754 26112
-2.3010235 -0.96303546 3.1756222 26112
-2.287931 -0.96246874 3.1831682 26112
-2.2674487 -0.96243829 3.1949718 26112
2.1875193 -0.96250015 3.1926308 26112
2.209209 -0.96261102 3.1800845 26112
-2.3010643 -0.93805528 3.1756785 26112
-2.2880907 -0.93743533 3.1831558 26112
-2.2673779 -0.93745393 3.1950927 26112
2.1877863 -0.93739313 3.1925569 26112
2.2095129 -0.93759191 3.1799884 26112
-2.301105 -0.9130742 3.1757345 26112
-2.2876837 -0.91222608 3.1834702 26112
-2.2672553 -0.91286963 3.195241 26112
2.1869352 -0.91264182 3.1931291 26112
2.2085896 -0.91233307 3.1806021 26112
-2.3011456 -0.88809204 3.1757905 26112
-2.2872338 -0.88751763 3.1838088 26112
-2.2664738 -0.88753581 3.1957712 26112
2.1868663 -0.88749015 3.1932492 26112
2.2085867 -0.88748962 3.1806834 26112
-2.3011861 -0.86310923 3.1758468 26112
-2.2871628 -0.86246616 3.1839294 26112
-2.266824 -0.86256778 3.1956489 26112
2.1868763 -0.86246699 3.1933227 26112
2.208487 -0.86247647 3.1808205 26112
-2.3012269 -0.83812547 3.1759026 26112
-2.2873154 -0.83742476 3.1839218 26112
-2.2664783 -0.83758402 3.1959283 26112
2.187068 -0.83761454 3.19329 26112
2.2087564 -0.83758003 3.1807439 26112
-2.3012671 -0.81314075 3.1759589 26112
-2.2873359 -0.81246638 3.1839895 26112
-2.2668898 -0.81245285 3.1957707 26112
2.187804 -0.81240988 3.1929452 26112
2.2084792 -0.8125596 3.1809838 26112
-2.3013103 -0.78684014 3.176018 26112
-2.2873392 -0.78751343 3.1840661 26112
-2.2665937 -0.78746533 3.1960208 26112
2.1880336 -0.78739589 3.1928916 26112
2.2089231 -0.78740191 3.1808076 26112
-2.302017 -0.75988406 3.1756968 26112
-2.2873464 -0.76255935 3.1841424 26112
-2.2668474 -0.76249504 3.1959543 26112
2.1878145 -0.7623927 3.1930976 26112
2.2094908 -0.76254851 3.1805577 26112
-2.3022699 -0.73737156 3.175622 26112
-2.287456 -0.73750603 3.1841588 26112
-2.2668262 -0.73751414 3.1960456 26112
2.1881974 -0.73759627 3.1929548 26112
2.2098539 -0.73752362 3.1804276 26112
-2.302408 -0.71244401 3.1756217 26112
-2.2874258 -0.71245664 3.1842554 26112
-2.2668054 -0.71253169 3.1961381 26112
2.1878273 -0.71259111 3.1932478 26112
2.2095697 -0.71250248 3.1806715 26112
-2.302351 -0.68740219 3.1757348 26112
-2.2875853 -0.68749547 3.1842425 26112
-2.2670586 -0.68756229 3.1960704 26112
2.1881919 -0.68757522 3.1931174 26112
2.209933 -0.68747872 3.1805403 26112
-2.3024893 -0.66247374 3.1757343 26112
-2.2874577 -0.66244584 3.1843951 26112
-2.2673037 -0.66298521 3.1960077 26112
2.188005 -0.66256392 3.1933048 26112
2.2096481 -0.66245276 3.1807852 26112
-2.3024325 -0.6374293 3.1758468 26112
-2.2877293 -0.63748217 3.1843185 26112
-2.2680979 -0.63740295 3.195631 26112
2.1882446 -0.63743937 3.1932459 26112
2.2100122 -0.63743061 3.1806538 26112
-2.3025706 -0.61249995 3.1758466 26112
-2.2874544 -0.61252499 3.1845574 26112
-2.2678223 -0.61260909 3.1958685 26112
2.1881247 -0.61242419 3.1933947 26112
2.2097619 -0.61252034 3.1808782 26112
-2.3025138 -0.58745295 3.1759593 26112
-2.287909 -0.5875603 3.1843741 26112
-2.268146 -0.5874902 3.1957636 26112
2.1882229 -0.58740872 3.1934173 26112
2.2100537 -0.58749783 3.180788 26112
-2.3026521 -0.56252259 3.1759586 26112
-2.2874589 -0.56250501 3.1847136 26112
-2.2679594 -0.56251156 3.1959505 26112
2.1883962 -0.56250447 3.1933956 26112
2.2098403 -0.56246376 3.1809912 26112
-2.3025951 -0.5374729 3.1760712 26112
-2.2880836 -0.53754282 3.1844332 26112
-2.2681696 -0.53738201 3.1959095 26112
2.1881018 -0.53759128 3.1936469 26112
2.2101324 -0.53744191 3.1809025 26112
-2.3027334 -0.51254171 3.1760707 26112
-2.287442 -0.51257426 3.1848829 26112
-2.2681277 -0.51241487 3.1960127 26112
2.1886325 -0.51258385 3.1934175 26112
2.2099733 -0.51252568 3.1810727 26112
-2.3026764 -0.4874894 3.1761835 26112
-2.2881691 -0.48752198 3.1845429 26112
-2.2680862 -0.48744595 3.1961164 26112
2.1880784 -0.48754904 3.1938174 26112
2.2101567 -0.48750031 3.181046 26112
-2.3028147 -0.46255741 3.176183 26112
-2.2875216 -0.4624511 3.1849954 26112
-2.2682958 -0.46231592 3.1960747 26112
2.1887162 -0.46243691 3.1935282 26112
2.2100518 -0.46246293 3.1811872 26112
-2.3018143 -0.43736228 3.1768394 26112
-2.2872932 -0.4374283 3.1852074 26112
-2.2680795 -0.43751264 3.1962786 26112
2.1881852 -0.43750641 3.1939158 26112
2.2102361 -0.43743691 3.1811612 26112
-2.301985 -0.41241503 3.1768208 26112
-2.2866962 -0.41244313 3.1856313 26112
-2.2684593 -0.41240352 3.1961396 26112
2.1887572 -0.41239512 3.1936646 26112
2.2102044 -0.41251999 3.1812575 26112
-2.3018954 -0.3873632 3.1769516 26112
-2.2873714 -0.38739884 3.1853209 26112
-2.2681837 -0.38758889 3.196378 26112
2.1883616 -0.38746372 3.1939726 26112
2.2102437 -0.38748571 3.1813145 26112
-2.3020666 -0.36241528 3.1769328 26112
-2.2868178 -0.36250955 3.1857207 26112
-2.2685065 -0.36247364 3.1962721 26112
2.1886461 -0.36245149 3.1938877 26112
2.2103775 -0.3625764 3.1813161 26112
-2.3019769 -0.33736047 3.1770637 26112
-2.2874026 -0.3374652 3.1854615 26112
-2.2684081 -0.33767951 3.1964064 26112
2.1895416 -0.33760259 3.1934485 26112
2.210237 -0.33752897 3.1814768 26112
-2.3021476 -0.31241205 3.1770446 26112
-2.2870035 -0.31257671 3.1857708 26112
-2.2684479 -0.31252456 3.1964636 26112
2.1894422 -0.31246331 3.1935852 26112
2.2104561 -0.31250426 3.1814299 26112
-2.3025606 -0.28630111 3.1768904 26112
-2.2873771 -0.28752404 3.1856353 26112
-2.2684884 -0.2873688 3.1965208 26112
2.1898081 -0.28735474 3.1934545 26112
2.2111659 -0.28730026 3.1810997 26112
-2.3031662 -0.26224634 3.1766174 26112
-2.2872567 -0.26264662 3.1857846 26112
-2.2685292 -0.26221216 3.1965771 26112
2.1894071 -0.26254779 3.1937644 26112
2.2114751 -0.26237285 3.1809998 26112
-2.3030603 -0.2372002 3.1767581 26112
-2.2872972 -0.23757394 3.1858408 26112
-2.2685688 -0.23705453 3.1966331 26112
2.1899905 -0.23745805 3.1935077 26112
2.2113333 -0.23732458 3.1811614 26112
-2.3032479 -0.21224453 3.1767297 26112
-2.2873371 -0.2125005 3.1858974 26112
-2.2684379 -0.21262455 3.1967881 26112
2.1895862 -0.21276648 3.1938202 26112
2.2115531 -0.21230216 3.1811137 26112
-2.3031418 -0.18719532 3.1768706 26112
-2.2873781 -0.18742603 3.1859536 26112
-2.2691853 -0.18797979 3.1964352 26112
2.1899526 -0.18766016 3.1936874 26112
2.2114117 -0.18725035 3.1812754 26112
-2.3033292 -0.16223918 3.176842 26112
-2.2874184 -0.16235085 3.1860099 26112
-2.2696285 -0.16287316 3.1962588 26112
2.1898334 -0.16274957 3.1938362 26112
2.2116327 -0.16222784 3.1812265 26112
-2.3032229 -0.13718686 3.1769829 26112
-2.2874596 -0.13727465 3.1860664 26112
-2.2696686 -0.13771632 3.196316 26112
2.1898725 -0.13761185 3.1938927 26112
2.2114897 -0.13717261 3.1813881 26112
-2.3034103 -0.11223032 3.1769538 26112
-2.2875004 -0.11219764 3.1861229 26112
-2.2697093 -0.11255861 3.1963725 26112
2.1899118 -0.11247326 3.1939497 26112
2.2117116 -0.11214992 3.1813402 26112
-2.3033042 -0.087174892 3.1770947 26112
-2.28754 -0.087119669 3.1861787 26112
-2.2697494 -0.087399982 3.1964295 26112
2.1899512 -0.087333739 3.1940064 26112
2.2115691 -0.087091319 3.1815019 26112
-2.3034918 -0.062217906 3.1770666 26112
-2.2875807 -0.06204088 3.1862357 26112
-2.2697897 -0.062240474 3.1964869 26112
2.1899903 -0.062193308 3.1940637 26112
2.2117906 -0.062068455 3.1814537 26112
-2.3033857 -0.037159372 3.1772072 26112
-2.287621 -0.036961161 3.1862922 26112
-2.26983 -0.037080072 3.1965432 26112
2.1900296 -0.037051976 3.1941204 26112
2.2116487 -0.037006412 3.1816156 26112
-2.3035734 -0.012201942 3.1771789 26112
-2.287662 -0.011880561 3.1863484 26112
-2.2698703 -0.011918787 3.1966002 26112
2.190069 -0.011909755 3.1941791 26112
2.2118695 -0.011983432 3.1815667 26112
-2.3036129 0.012202221 3.1772335 26112
-2.2876997 0.011880825 3.1864016 26112
-2.2699087 0.011919052 3.1966541 26112
2.1901059 0.011910023 3.1942329 26112
2.2119067 0.011983708 3.1816216 26112
-2.3035066 0.037161391 3.1773739 26112
-2.2877407 0.03696315 3.1864583 26112
-2.2699497 0.037082098 3.1967108 26112
2.1901453 0.03705401 3.1942904 26112
2.2117646 0.037008431 3.1817832 26112
-2.3036938 0.062223427 3.1773458 26112
-2.287781 0.062046356 3.1865146 26112
-2.2699893 0.062246028 3.1967676 26112
2.1901841 0.062198907 3.1943476 26112
2.2119863 0.062074017 3.1817355 26112
-2.3035877 0.087185703 3.1774864 26112
-2.287822 0.087130472 3.1865711 26112
-2.2700295 0.087410845 3.1968243 26112
2.1902232 0.087344691 3.1944039 26112
2.2118435 0.08710219 3.1818969 26112
-2.2536135 -1.2835804 3.2019215 485639
-2.2375484 -1.2830157 3.2111809 222979
-2.2184727 -1.2832669 3.2221718 354309
2.1402862 -1.2833592 3.2189343 354309
2.1623788 -1.2833238 3.2061548 288772
-2.2538121 -1.2624147 3.2018752 26112
-2.2376471 -1.2625066 3.2111893 26112
-2.2186742 -1.2623732 3.2221215 26112
2.1401241 -1.2628671 3.2190933 26112
2.1621609 -1.2622466 3.2063472 26112
-2.2530103 -1.2367401 3.2024186 26112
-2.2371285 -1.2377763 3.2115667 26112
-2.2187316 -1.2376999 3.222168 26112
2.1393895 -1.2375197 3.2195992 26112
2.1614239 -1.2374809 3.2068524 26112
-2.2529547 -1.2123605 3.2025278 26112
-2.2366688 -1.2125102 3.2119129 26112
-2.2195182 -1.2127203 3.2217944 26112
2.1394885 -1.2124687 3.2196214 26112
2.1616507 -1.2125653 3.2068005 26112
-2.2529216 -1.1874948 3.202626 26112
-2.237004 -1.1875563 3.211798 26112
-2.2197993 -1.1873974 3.2217128 26112
2.1395781 -1.1875517 3.2196484 26112
2.1615326 -1.1875485 3.2069488 26112
-2.2528884 -1.1626269 3.202724 26112
-2.236732 -1.1626002 3.2120345 26112
-2.2196362 -1.1623108 3.2218866 26112
2.1395652 -1.1626184 3.2197356 26112
2.1616342 -1.1625308 3.2069693 26112
-2.2539864 -1.1372032 3.202173 26112
-2.2369428 -1.1375434 3.2119925 26112
-2.219718 -1.1375067 3.2219183 26112
2.1396127 -1.1374393 3.2197878 26112
2.1617348 -1.1375124 3.2069907 26112
-2.2538643 -1.1125228 3.2023218 26112
-2.2369356 -1.1124841 3.2120759 26112
-2.2199197 -1.1124456 3.2218816 26112
2.1396408 -1.1125095 3.2198505 26112
2.1616645 -1.1125939 3.2071104 26112
-2.2541425 -1.0873555 3.2022412 26112
-2.2369287 -1.0874234 3.2121599 26112
-2.2197535 -1.0876201 3.2220562 26112
2.1396694 -1.0875789 3.2199149 26112
2.1618896 -1.0875766 3.2070606 26112
-2.2539828 -1.062415 3.2024128 26112
