# .PCD v0.7 - Point Cloud Data file format
VERSION 0.7
FIELDS x y z rgb
SIZE 4 4 4 4
TYPE F F F U
COUNT 1 1 1 1
WIDTH 1174
HEIGHT 1
VIEWPOINT 0 0 0 1 0 0 0
POINTS 1174
DATA ascii
-1.0720643 -0.062580533 1.7982829 6710886
0.99272174 -0.062510535 1.7962723 6710886
1.0119458 -0.062969409 1.7881696 6710886
1.0372071 -0.062749363 1.7819214 6710886
1.0621908 -0.062845074 1.7801006 6710886
1.0869752 -0.062800348 1.7825493 6710886
1.1114925 -0.062644869 1.7892205 6710886
1.1295711 -0.062546887 1.7973175 6710886
-1.2054455 -0.037972432 1.7972051 6710886
-1.1871216 -0.037815537 1.7897774 6710886
-1.1624359 -0.037688438 1.7837615 6710886
-1.137681 -0.037651934 1.7820328 6710886
-1.1126542 -0.037704673 1.7845285 6710886
-1.087364 -0.037854038 1.7915972 6710886
-1.0720996 -0.037996549 1.7983427 6710886
0.99275553 -0.037954062 1.7963322 6710886
1.011984 -0.037783042 1.7882376 6710886
1.0372499 -0.037651125 1.7819953 6710886
1.0620034 -0.037612502 1.7801675 6710886
1.0862846 -0.037661545 1.7824898 6710886
1.1111279 -0.037803188 1.7891942 6710886
1.1296446 -0.037977315 1.7974349 6710886
-1.2055297 -0.012658266 1.7973306 6710886
-1.1871897 -0.01260582 1.78988 6710886
-1.1624939 -0.012563367 1.7838501 6710886
-1.1377316 -0.012551134 1.7821124 6710886
-1.1126989 -0.012568668 1.7845999 6710886
-1.0874034 -0.012618418 1.7916626 6710886
-1.0721362 -0.012665898 1.7984037 6710886
0.99278969 -0.01265175 1.7963938 6710886
1.0120223 -0.012594764 1.7883037 6710886
1.0372926 -0.01255084 1.7820684 6710886
1.0620513 -0.012538001 1.7802464 6710886
1.0863386 -0.012554403 1.7825786 6710886
1.1111927 -0.012601715 1.7892972 6710886
1.129667 -0.012801699 1.7975273 6710886
-1.2055583 0.012517191 1.7974257 6710886
-1.1872574 0.012606776 1.7899833 6710886
-1.1625514 0.012564189 1.7839378 6710886
-1.1371924 0.012654546 1.7822298 6710886
-1.1121875 0.012469468 1.7847465 6710886
-1.0874441 0.012619028 1.791728 6710886
-1.0721726 0.012666474 1.7984651 6710886
0.99282378 0.012652325 1.7964565 6710886
1.0120597 0.012595393 1.7883719 6710886
1.0373355 0.012551529 1.7821419 6710886
1.0620997 0.01253876 1.7803278 6710886
1.0863934 0.012555246 1.7826686 6710886
1.1112572 0.012602685 1.7894007 6710886
1.1286764 0.012656791 1.7970796 6710886
-1.2045355 0.037967533 1.7969588 6710886
-1.1873252 0.037822265 1.790085 6710886
-1.1626087 0.037694231 1.784026 6710886
-1.1371236 0.037658092 1.7823161 6710886
-1.1121069 0.037711345 1.7848365 6710886
-1.0874838 0.037858296 1.7917937 6710886
-1.0722091 0.038000565 1.7985258 6710886
0.99285829 0.037958141 1.7965181 6710886
1.012098 0.03778746 1.7884383 6710886
1.037378 0.037655976 1.782215 6710886
1.0621476 0.037617803 1.7804091 6710886
1.0864481 0.037667412 1.7827561 6710886
1.1113218 0.03781002 1.7895051 6710886
1.1287524 0.037972633 1.7972006 6710886
-1.2046171 0.062538885 1.7970812 6710886
-1.1872638 0.062875591 1.7901456 6710886
-1.162666 0.06282676 1.7841148 6710886
-1.1371738 0.062766246 1.7823957 6710886
-1.1121513 0.062854707 1.7849076 6710886
-1.087713 0.062789425 1.791791 6710886
-1.0722443 0.06259118 1.7985849 6710886
0.99289161 0.062521331 1.7965784 6710886
1.0121708 0.06294594 1.7884946 6710886
1.0374207 0.062762491 1.7822886 6710886
1.0621957 0.062699087 1.7804888 6710886
1.0865031 0.062782153 1.7828481 6710886
1.1112877 0.062910341 1.7895696 6710886
1.1288264 0.062547147 1.7973182 6710886
-1.2046986 0.087113619 1.7972028 6710886
-1.1874949 0.087460898 1.7902983 6710886
-1.162479 0.088130958 1.784176 6710886
-1.1370118 0.087729044 1.782469 6710886
-1.1121962 0.088000059 1.7849791 6710886
-1.0874063 0.087310269 1.7919774 6710886
-1.0722796 0.087183423 1.7986443 6710886
0.9934628 0.087008759 1.7963495 6710886
1.0123218 0.087701537 1.7885275 6710886
1.0374638 0.087871023 1.7823622 6710886
1.0622438 0.087782666 1.7805698 6710886
1.0865577 0.087899394 1.7829378 6710886
1.1113927 0.087608427 1.789698 6710886
1.1288999 0.087124921 1.797436 6710886
-1.2347389 -0.38249856 1.8150864 6579812
-1.2182883 -0.38244167 1.8029889 6579812
-1.0581509 -0.38238302 1.8050663 6645349
-1.0415677 -0.3825368 1.8178381 6579812
0.96374589 -0.38246423 1.8145205 6579556
0.9796319 -0.38229656 1.8023037 6645349
1.1424063 -0.38224497 1.8034734 6645349
1.158924 -0.38254052 1.8164749 6579812
-1.2348195 -0.36260095 1.8152155 6710886
-1.2184117 -0.36244181 1.8031176 6710886
-1.0582086 -0.36240384 1.8050929 6710886
-1.0416008 -0.36252186 1.8178741 6710886
0.96376097 -0.36255273 1.814569 6710886
0.97960675 -0.36232978 1.8023802 6710886
1.1424689 -0.3623904 1.8035723 6710886
1.1589575 -0.36250278 1.8165741 6710886
-1.2349583 -0.33769119 1.8154088 6710886
-1.2184678 -0.33751544 1.8032274 6710886
-1.0587828 -0.33755219 1.8048377 6710886
-1.0416062 -0.33745664 1.8179487 6710886
0.96376193 -0.33754924 1.8146477 6710886
0.97969157 -0.33751619 1.8024133 6710886
1.1425984 -0.33761266 1.8037475 6710886
1.1592182 -0.33745503 1.8168885 6710886
-1.2350129 -0.31265295 1.8155328 6710886
-1.2184955 -0.31258729 1.8033209 6710886
-1.0588063 -0.31255952 1.8049115 6710886
-1.0416408 -0.31252307 1.8179991 6710886
0.9638406 -0.31247601 1.8146631 6710886
0.97977507 -0.31270158 1.8024437 6710886
1.1426229 -0.31267732 1.8038427 6710886
1.1592833 -0.31239966 1.8170375 6710886
-1.2351878 -0.28748283 1.815757 6710886
-1.2185541 -0.28750679 1.8034348 6710886
-1.058882 -0.2874718 1.8049406 6710886
-1.0416676 -0.2875452 1.8180557 6710886
0.96380055 -0.287471 1.8147732 6710886
0.97975719 -0.28750569 1.8025341 6710886
1.1426729 -0.28758889 1.8039502 6710886
1.1577276 -0.28762105 1.8157254 6710886
-1.2353261 -0.2625601 1.8159491 6710886
-1.2187576 -0.26241708 1.8036311 6710886
-1.0588921 -0.26242939 1.8050038 6710886
-1.0417174 -0.26242888 1.818095 6710886
0.96391302 -0.26253182 1.8147607 6710886
0.97973895 -0.26230672 1.8026235 6710886
1.1428007 -0.26236415 1.8041229 6710886
1.157746 -0.26254076 1.8158112 6710886
-1.2354661 -0.23763192 1.8161435 6710886
-1.2186568 -0.23722529 1.8036628 6710886
-1.0588343 -0.23747964 1.805126 6710886
-1.0417659 -0.23752581 1.8181323 6710886
0.96390134 -0.23752335 1.8148489 6710886
0.97984558 -0.23758335 1.8026445 6710886
1.1417301 -0.23760948 1.8035834 6710886
1.15789 -0.23758745 1.8160084 6710886
-1.2355037 -0.21244594 1.8162546 6710886
-1.2176164 -0.21266647 1.8031869 6710886
-1.0589737 -0.21252882 1.8051255 6710886
-1.0423048 -0.21251187 1.8177644 6710886
0.96391201 -0.21247642 1.8149189 6710886
0.9798854 -0.21275972 1.8026984 6710886
1.1417738 -0.21259429 1.8036877 6710886
1.1578439 -0.21262923 1.8160503 6710886
-1.235746 -0.18750949 1.8165327 6710886
-1.2178012 -0.18752579 1.8033721 6710886
-1.0590708 -0.18753006 1.8051332 6710886
-1.0423168 -0.18747774 1.8178341 6710886
0.96393132 -0.18753618 1.8149792 6710886
0.97988915 -0.18746404 1.8027771 6710886
1.1418287 -0.18745138 1.803798 6710886
1.1581393 -0.18751548 1.8163719 6710886
-1.2358166 -0.16256514 1.8166701 6710886
-1.2179509 -0.16225702 1.8035387 6710886
-1.0587565 -0.16221569 1.8054267 6710886
-1.0420841 -0.16267018 1.8181038 6710886
0.9639951 -0.16252071 1.8150059 6710886
0.98043007 -0.16229004 1.8025637 6710886
1.1420411 -0.16229992 1.8040155 6710886
1.1581709 -0.16254862 1.8164768 6710886
-1.2358024 -0.13749367 1.8167385 6710886
-1.2179838 -0.1374892 1.8036424 6710886
-1.0584444 -0.13746695 1.8057362 6710886
-1.0419569 -0.13756184 1.8182873 6710886
0.96410167 -0.13743855 1.8149973 6710886
0.98060232 -0.1376652 1.8025484 6710886
1.1420749 -0.13752609 1.8041279 6710886
1.1582013 -0.13757965 1.8165811 6710886
-1.2361988 -0.11241025 1.8171436 6710886
-1.2180113 -0.11271855 1.803738 6710886
-1.0587065 -0.11266093 1.8056418 6710886
-1.0418037 -0.11239667 1.8184925 6710886
0.96387959 -0.11245354 1.8152601 6710886
0.98056471 -0.11276901 1.8026468 6710886
1.1420841 -0.11274743 1.8042011 6710886
1.1584969 -0.11244489 1.8169036 6710886
-1.2360449 -0.087585106 1.817096 6710886
-1.2181624 -0.087438278 1.8039066 6710886
-1.0591381 -0.087514751 1.8054825 6710886
-1.0419837 -0.087546401 1.8184248 6710886
0.96385807 -0.087743104 1.8153549 6710886
0.98019177 -0.087120451 1.8029615 6710886
1.1422381 -0.087461494 1.8043863 6710886
1.158373 -0.087625884 1.8168812 6710886
-1.2363065 -0.062492412 1.8173914 6710886
-1.2183124 -0.062152755 1.8040739 6710886
-1.0591137 -0.062164783 1.8055748 6710886
-1.0419389 -0.062532105 1.8185412 6710886
0.9635607 -0.062433712 1.81568 6710886
0.98001719 -0.062144857 1.8031464 6710886
1.1423846 -0.062169425 1.8045585 6710886
1.158595 -0.062483884 1.8171422 6710886
-1.2364295 -0.037649672 1.8175701 6710886
-1.218282 -0.037502307 1.8041403 6710886
-1.0592684 -0.037488524 1.8055631 6710886
-1.0419699 -0.037671041 1.8185953 6710886
0.96358955 -0.037611812 1.8157351 6710886
0.98016101 -0.037507556 1.8031445 6710886
1.1423473 -0.037512235 1.8046187 6710886
1.1587002 -0.03764426 1.8173075 6710886
-1.2365502 -0.012802005 1.8177487 6710886
-1.2184323 -0.012707383 1.8043061 6710886
-1.0592399 -0.012716977 1.8056551 6710886
-1.0420005 -0.012808492 1.8186487 6710886
0.96361858 -0.012788354 1.8157891 6710886
0.98013699 -0.012699932 1.8032352 6710886
1.1424141 -0.012594628 1.8047439 6710886
1.1588056 -0.012800076 1.8174731 6710886
-1.2361385 0.012280808 1.81749 6710886
-1.2184441 0.012824198 1.8043993 6710886
-1.0592744 0.01271753 1.8057144 6710886
-1.0420325 0.012809013 1.8187042 6710886
0.96364844 0.01278888 1.8158467 6710886
0.98017019 0.012700507 1.8032969 6710886
1.1413957 0.012707193 1.8042339 6710886
1.1589139 0.012801672 1.8176433 6710886
-1.2350851 0.037632149 1.8167048 6710886
-1.2173705 0.037478976 1.8038969 6710886
-1.0593696 0.037492275 1.8057364 6710886
-1.0420634 0.037674554 1.8187582 6710886
0.963678 0.03761537 1.8159009 6710886
0.98025948 0.037511442 1.8033257 6710886
1.1414161 0.037487939 1.8043286 6710886
1.1590191 0.037654992 1.8178082 6710886
-1.234233 0.063021809 1.8160844 6710886
-1.2169657 0.061637528 1.8037273 6710886
-1.0592831 0.062174816 1.8058628 6710886
-1.0420945 0.062541559 1.8188118 6710886
0.96370649 0.062443372 1.8159558 6710886
0.98018038 0.062155303 1.8034459 6710886
1.1416248 0.06215192 1.804536 6710886
1.159125 0.062512875 1.8179736 6710886
-1.2334746 0.08763697 1.8155401 6710886
-1.2163587 0.087416351 1.8034482 6710886
-1.0593761 0.08753448 1.8058877 6710886
-1.0422013 0.087564789 1.8188038 6710886
0.96389973 0.087599024 1.8158742 6710886
0.98081279 0.087467447 1.80318 6710886
1.1416539 0.087474205 1.8046417 6710886
1.1591531 0.08752986 1.818076 6710886
-1.2571255 -0.38223904 1.8379307 6710886
-1.2479565 -0.38293856 1.8267387 6317664
-1.0288975 -0.38264716 1.8301742 6514275
-1.018922 -0.38257459 1.842419 6579556
0.94122094 -0.38254452 1.8382232 6579300
0.95099884 -0.3828207 1.8261758 6579300
1.1742191 -0.3825509 1.8321308 6514275
1.1811359 -0.38278243 1.8405434 6514275
-1.257385 -0.36251634 1.8383106 6710886
-1.2482226 -0.362582 1.8271279 6710886
-1.028931 -0.36251903 1.8301976 6710886
-1.0189782 -0.36256051 1.8424129 6710886
0.94126117 -0.36249796 1.8382362 6710886
0.95101953 -0.36240143 1.8262155 6710886
1.174408 -0.362115 1.8324252 6710886
1.1813263 -0.36225265 1.8408403 6710886
-1.257715 -0.33747232 1.8387927 6710886
-1.248548 -0.33769047 1.8276042 6710886
-1.0289336 -0.33750716 1.8302742 6710886
-1.0190027 -0.33755583 1.8424579 6710886
0.94131833 -0.33750227 1.8382417 6710886
0.9510448 -0.33744332 1.8262644 6710886
1.1746385 -0.33712921 1.832785 6710886
1.1815594 -0.33715215 1.8412033 6710886
-1.258045 -0.31241521 1.839275 6710886
-1.2488732 -0.3127858 1.8280805 6710886
-1.0289841 -0.31249201 1.8302917 6710886
-1.0190494 -0.31255284 1.8424767 6710886
0.94130778 -0.3125487 1.8383303 6710886
0.95106995 -0.31248382 1.8263123 6710886
1.1748692 -0.31213352 1.8331449 6710886
1.1817855 -0.31280273 1.841556 6710886
-1.2583748 -0.28734487 1.8397576 6710886
-1.2492082 -0.28711277 1.8285706 6710886
-1.0289862 -0.28747681 1.8303692 6710886
-1.0190548 -0.28754368 1.8425512 6710886
0.94140983 -0.28750685 1.8382813 6710886
0.95109528 -0.28752294 1.8263606 6710886
1.168666 -0.28732347 1.8256783 6710886
1.1787791 -0.28706756 1.8379807 6710886
-1.2587051 -0.26226148 1.8402405 6710886
-1.2495333 -0.26218173 1.8290465 6710886
-1.0290552 -0.2625446 1.8303643 6710886
-1.0190926 -0.26247984 1.8425803 6710886
0.94131333 -0.26246628 1.838484 6710886
0.95112044 -0.26256081 1.8264093 6710886
1.1684657 -0.26243168 1.8255136 6710886
1.1787887 -0.262712 1.8380697 6121053
-1.2584957 -0.23717344 1.8400642 6710886
-1.2498486 -0.2379937 1.8295082 6710886
-1.0290816 -0.23738346 1.830413 6710886
-1.0190965 -0.23747022 1.8426523 6710886
0.94143361 -0.23742345 1.8384079 6710886
0.95114547 -0.23759736 1.826458 6710886
1.1686944 -0.23752066 1.8258709 6710886
1.1790211 -0.23762964 1.8384322 5858905
-1.254909 -0.21255642 1.835765 6710886
-1.0295933 -0.2125798 1.8298694 6710886
-1.0191916 -0.21245962 1.8426175 6710886
0.9414143 -0.21246298 1.8385091 6710886
0.95117098 -0.2126326 1.8265064 6710886
1.1689231 -0.21259983 1.8262283 6710886
1.1792538 -0.21253751 1.8387948 5858905
-1.2549591 -0.1874962 1.8359057 6710886
-1.0294893 -0.1875618 1.8300755 6710886
-1.0190966 -0.18744841 1.8428084 6710886
0.94145685 -0.18745957 1.8385386 6710886
0.95119619 -0.18766648 1.8265548 6710886
1.1691519 -0.18766929 1.8265858 6710886
1.1793779 -0.18781513 1.8390248 5858905
-1.2555655 -0.16244604 1.8367256 6710886
-1.0296468 -0.16255404 1.8299631 6710886
-1.0192201 -0.16243659 1.8427334 6710886
0.94141686 -0.16241363 1.8386602 6710886
0.95122164 -0.16269906 1.8266037 6710886
1.1693808 -0.16272891 1.826943 6710886
1.1798209 -0.16270451 1.8396432 5793368
-1.2556158 -0.13736884 1.8368664 6710886
-1.0295428 -0.13752915 1.8301704 6710886
-1.0192553 -0.13754183 1.8427694 6710886
0.94160575 -0.13744964 1.8385066 6710886
0.9512468 -0.13773026 1.8266517 6710886
1.1696097 -0.13777889 1.8273009 6710886
1.179844 -0.137585 1.8397509 5858905
-1.256223 -0.11228319 1.8376869 6710886
-1.0297002 -0.11252309 1.8300585 6710886
-1.019145 -0.11257847 1.8429832 6710886
0.9413904 -0.11248324 1.8388524 6710886
0.95127213 -0.1127602 1.8267008 6710886
1.1698385 -0.11281896 1.8276588 6710886
1.1802876 -0.11244758 1.840371 5793368
-1.2562732 -0.087188996 1.837828 6645349
-1.0295957 -0.087491274 1.830265 6710886
-1.019694 -0.087547056 1.8423446 6710886
0.94164032 -0.087352768 1.8386185 6710886
0.95129722 -0.087788753 1.8267493 6710886
1.1700678 -0.087849371 1.8280166 6710886
1.1803108 -0.087315194 1.840479 5662294
-1.2567366 -0.062455364 1.8384724 5858905
-1.0297531 -0.062487025 1.8301531 6710886
-1.0197238 -0.062588446 1.8423764 6710886
0.941553 -0.062467191 1.8388056 6710886
0.95132244 -0.062816024 1.8267974 6710886
1.170297 -0.062869899 1.8283749 6710886
1.1806461 -0.062540196 1.8409655 5006924
-1.2570658 -0.037330396 1.8389539 5858905
-1.0296571 -0.03737374 1.8303503 6710886
-1.01975 -0.037401352 1.8424234 6710886
0.94157767 -0.03732888 1.8388541 6710886
0.95134783 -0.037841979 1.826846 6710886
1.1705333 -0.037123282 1.8287439 6710886
1.1808797 -0.037378766 1.8413299 5006924
-1.2573951 -0.012192384 1.8394358 5858905
-1.0297984 -0.012368763 1.8302575 6710886
-1.0197755 -0.012212963 1.8424705 6710886
0.94160241 -0.012189306 1.8389021 6710886
0.9513731 -0.012866573 1.8268944 6710886
1.1707628 -0.012124021 1.8291025 6710886
1.1811132 -0.012207482 1.8416942 5006924
-1.2577146 0.012196513 1.8399032 5858905
-1.2452787 0.021170519 1.8250324 6710886
-1.029825 0.012369187 1.8303035 6710886
-1.019801 0.012213372 1.8425161 6710886
0.94162631 0.012189721 1.8389494 6710886
0.95139909 0.012867039 1.8269442 6710886
1.1709859 0.0121271 1.8294512 6710886
1.1803497 0.010275041 1.8408368 5465683
-1.2580442 0.037360616 1.8403854 5858905
-1.2453607 0.037807137 1.8251526 6710886
-1.0297369 0.037376717 1.8304907 6710886
-1.0198269 0.03740431 1.8425632 6710886
0.9416514 0.03733192 1.8389975 6710886
0.95142442 0.037845116 1.8269925 6710886
1.1712162 0.037145805 1.8298107 6710886
1.1781003 0.037315827 1.8381863 6710886
-1.2583745 0.062537782 1.840868 6646373
-1.2454838 0.062765941 1.8253328 6710886
-1.0298779 0.062418442 1.8303981 6710886
-1.0198531 0.0625965 1.8426107 6710886
0.94167572 0.062475383 1.8390452 6710886
0.95144969 0.062824555 1.8270413 6710886
1.1714466 0.062174238 1.8301708 6710886
1.1783329 0.062458888 1.8385494 6710886
-1.2585595 0.087348782 1.8411727 7105644
-1.2456068 0.08772964 1.8255132 6710886
-1.0297903 0.087432407 1.8305866 6710886
-1.0199618 0.087414369 1.8425555 6710886
0.94181216 0.087368816 1.8389536 6710886
0.95147485 0.087805264 1.8270901 6710886
1.171677 0.087212622 1.8305308 6710886
1.1785657 0.087611988 1.8389128 6710886
-1.0068651 -0.3825123 1.8624251 6579300
0.92251241 -0.38242006 1.8696973 6645093
0.92919725 -0.38246354 1.8568325 6645093
-1.0069162 -0.3625046 1.8623915 6710886
0.92256004 -0.36239955 1.8696648 6710886
0.92926592 -0.36247015 1.8567678 6710886
-1.0069149 -0.33750269 1.8624723 6710886
0.9225449 -0.33739957 1.8697727 6710886
0.92925471 -0.33747563 1.8568686 6710886
-1.0069689 -0.3125006 1.8624489 6710886
0.9225772 -0.31250617 1.8697824 6710886
0.92928231 -0.31248164 1.8568962 6710886
-1.0069679 -0.28749833 1.8625292 6710886
0.92258793 -0.28761306 1.8698319 6710886
0.92933446 -0.28748804 1.8568776 6710886
-1.0069697 -0.26244819 1.8626044 6710886
0.92286491 -0.26298365 1.8692447 6710886
0.92931849 -0.26249126 1.8569869 6710886
-1.0070184 -0.23744263 1.8625916 6710886
0.9230026 -0.23745887 1.8690081 6710886
0.9293586 -0.23756932 1.8569911 6710886
-1.007051 -0.2124375 1.8626099 6710886
0.92302674 -0.21229936 1.8690399 6710886
0.92942053 -0.21257068 1.8569547 6710886
-1.0070416 -0.18747467 1.8627057 6710886
0.922629 -0.18746997 1.8698814 6710886
0.9289605 -0.18752153 1.8578969 6710886
-1.0070844 -0.16255623 1.8627024 6710886
0.92264795 -0.16268396 1.8699207 6710886
0.92899913 -0.16254438 1.8579049 6710886
-1.0071309 -0.13750212 1.8626964 6710886
0.92266732 -0.1378969 1.8699596 6710886
0.92907721 -0.13742942 1.8578376 6710886
-1.0070654 -0.11249222 1.8628957 6710886
0.92265803 -0.11279062 1.8700564 6710886
0.92907554 -0.11245182 1.8579198 6710886
-1.0074009 -0.087456882 1.8623456 6710886
0.92273444 -0.087243252 1.8699819 6710886
0.92907351 -0.087751217 1.8580018 6710886
-1.0075351 -0.062445477 1.8621725 6710886
0.9227258 -0.061980028 1.8700783 6710886
0.92902851 -0.06269259 1.8581654 6710886
-1.0076314 -0.037251458 1.8620722 6710886
0.92274511 -0.03718878 1.8701168 6710886
0.92918086 -0.037307661 1.8579606 6710886
-1.0075681 -0.01234421 1.8622695 6710886
0.922764 -0.01239649 1.8701553 6710886
0.92913532 -0.012316742 1.8581252 6710886
-1.0075889 0.012344557 1.862308 6710886
0.9227832 0.012396827 1.8701948 6710886
0.92915535 0.012317098 1.8581662 6710886
-1.0076948 0.037253883 1.8621879 6710886
0.92280245 0.037191175 1.8702326 6710886
0.92924178 0.037310217 1.8580835 6710886
-1.0076401 0.062452085 1.8623685 6710886
0.92282152 0.061986528 1.8702719 6710886
0.92913133 0.062699609 1.8583711 6710886
-1.0076168 0.087571636 1.8624916 6710886
0.92286932 0.087256104 1.8702552 6710886
0.92921728 0.087764911 1.8582894 6710886
-1.0002977 -0.38239816 1.8760668 6710886
-0.99660301 -0.38272169 1.8882078 6579300
0.91655475 -0.3826144 1.8876797 6645093
-1.0003102 -0.3621946 1.87609 6710886
-0.99661857 -0.36251771 1.888221 6710886
0.91655868 -0.36248145 1.8877293 6710886
-1.0003256 -0.33732805 1.8761189 6710886
-0.99664021 -0.33749083 1.8882301 6710886
0.91659069 -0.33752677 1.8877019 6710886
-1.0003408 -0.31246075 1.8761476 6710886
-0.99663854 -0.31252754 1.8883134 6710886
0.91658825 -0.31257042 1.8877894 6710886
-1.0003561 -0.28759265 1.8761762 6710886
-0.99665433 -0.28749815 1.8883433 6710886
0.91661865 -0.28754881 1.8877687 6710886
-1.0003715 -0.26272377 1.8762051 6710886
-0.99668747 -0.2624684 1.8883132 6710886
0.9168461 -0.2623449 1.8870955 6710886
-1.0003867 -0.23785415 1.8762337 6710886
-0.99668503 -0.23743792 1.8884009 6710886
0.91693085 -0.23751746 1.8868918 6710886
-1.0004021 -0.21298379 1.8762627 6710886
-0.99670792 -0.21247123 1.8884048 6710886
0.91696572 -0.21250638 1.8868556 6710886
-1.0004174 -0.18811265 1.8762914 6710886
-0.99673212 -0.18744016 1.8884058 6710886
0.91696042 -0.18749449 1.8869526 6710886
-1.0004332 -0.16246349 1.8763211 6710886
-0.99674159 -0.16240658 1.8884537 6710886
0.91700107 -0.16248202 1.8868974 6710886
-1.0004491 -0.13681351 1.8763509 6710886
-0.99675965 -0.13750386 1.888472 6710886
0.91702145 -0.13746908 1.8869087 6710886
-1.0004644 -0.11194005 1.8763795 6710886
-0.99677801 -0.11260086 1.8884917 6710886
0.91702217 -0.11251577 1.8869864 6710886
-1.0004796 -0.087065801 1.8764082 6710886
-0.99677652 -0.087630361 1.8885745 6710886
0.91701919 -0.087560691 1.8870741 6710886
-1.0004952 -0.062190805 1.8764372 6710886
-0.99679232 -0.062594049 1.8886045 6710886
0.91703439 -0.062544361 1.8871046 6710886
-1.0005106 -0.037315041 1.8764657 6710886
-0.9968074 -0.037557002 1.8886331 6710886
0.91704875 -0.037527207 1.8871354 6710886
-1.0005258 -0.012438516 1.8764946 6710886
-0.99682301 -0.01251917 1.888662 6710886
0.91706365 -0.012509248 1.8871655 6710886
-1.0005411 0.012438771 1.8765233 6710886
-0.99683827 0.012519426 1.8886911 6710886
0.91707891 0.012509516 1.8871963 6710886
-1.0005565 0.037316822 1.8765521 6710886
-0.99685341 0.037558787 1.88872 6710886
0.91709352 0.037529081 1.8872266 6710886
-1.0003083 0.062950738 1.8774488 6710886
-0.99662197 0.062503375 1.8895601 6710886
0.91710788 0.062549464 1.8872567 6710886
-1.0003043 0.087118305 1.8775388 6710886
-0.99659896 0.087683327 1.8897153 6710886
0.91712296 0.087570675 1.8872879 6710886
-0.99165738 -0.3828007 1.9118412 7039851
0.91178125 -0.38261637 1.9121418 6645093
-0.99166632 -0.36252674 1.9118196 7171437
0.91179228 -0.3625505 1.9120947 6710886
-0.99166697 -0.33742115 1.9119067 7171437
0.91179651 -0.33755499 1.912128 6710886
-0.9916696 -0.31247178 1.9119602 7171437
0.91180289 -0.31247097 1.9121412 6710886
-0.99169469 -0.28752553 1.9118054 7171437
0.91180569 -0.28756464 1.9121935 6710886
-0.99168444 -0.2624979 1.9119979 7171437
0.91181391 -0.26256812 1.9121882 6710886
-0.9916988 -0.23754837 1.9119401 7171437
0.91181654 -0.23748344 1.9122394 6710886
-0.99170744 -0.21259895 1.9119453 7171437
0.91183442 -0.21257527 1.9121362 6710886
-0.99171788 -0.18757156 1.9119282 7171437
0.91182917 -0.18757854 1.9122663 6710886
-0.99171954 -0.16246139 1.9119989 7171437
0.91183966 -0.16249163 1.9122409 6710886
-0.99173856 -0.13743119 1.9118998 7171437
0.91185361 -0.13749385 1.912176 6710886
-0.99174124 -0.11240348 1.9119631 7171437
0.91185766 -0.11240961 1.9122096 6710886
-0.99172354 -0.087369025 1.9122198 7171437
0.9118433 -0.087319441 1.9124357 6710886
-0.99174666 -0.062497176 1.9120909 7171437
0.91185898 -0.062496286 1.9123533 6710886
-0.99177611 -0.037713464 1.911882 7105644
0.91188622 -0.037770726 1.91215 6710886
-0.99176359 -0.012674505 1.9120938 7105644
0.91187531 -0.012676134 1.9123393 6710886
-0.9917714 0.012674632 1.9121087 7105644
0.91188157 0.012676249 1.912353 6710886
-0.99179888 0.03771437 1.9119265 7105644
0.91190505 0.037771538 1.9121892 6710886
-0.99178052 0.062419426 1.9122045 7105644
0.91188973 0.062498454 1.912419 6710886
-0.99177974 0.087295435 1.9122785 7105644
0.91188705 0.087323673 1.9125278 6710886
-0.99056166 -0.38258812 1.9360545 8158332
0.91095078 -0.38290668 1.9355253 6579300
-0.99054968 -0.36242032 1.9359435 8224125
0.91094851 -0.36272073 1.9355738 6710886
-0.9905495 -0.33743772 1.9360583 8224125
0.91093856 -0.33759221 1.9355881 6710886
-0.99053991 -0.31246084 1.9359534 8224125
0.91094315 -0.31246766 1.9356347 6710886
-0.99054056 -0.28736496 1.935984 8224125
0.9109183 -0.28747049 1.9354173 6710886
-0.99052966 -0.26238427 1.9359626 8158332
0.91093016 -0.26247862 1.9356428 6710886
-0.99053544 -0.23752089 1.9360315 8224125
0.91091353 -0.23748563 1.9354439 6710886
-0.99051911 -0.21242844 1.9358852 8158332
0.91091961 -0.21249457 1.9355487 6710886
-0.99052119 -0.18744496 1.9360323 8224125
0.91090161 -0.18749847 1.9354548 6710886
-0.99051535 -0.16258685 1.9359049 8158332
0.91091889 -0.16251162 1.9356196 6710886
-0.99050528 -0.13749044 1.9358571 8158332
0.91088754 -0.13751659 1.935315 6710886
-0.99050373 -0.11239725 1.9359969 8158332
0.91091001 -0.11252454 1.9356729 6710886
-0.99050355 -0.087536491 1.935882 8158332
0.91088295 -0.087671861 1.9353215 6710886
-0.99048835 -0.062446155 1.9358248 8158332
0.91088969 -0.062544167 1.9354849 6710886
-0.99049973 -0.037575562 1.9360207 8158332
0.91088521 -0.037686683 1.9354753 6710886
-0.99047858 -0.012722704 1.9358056 8158332
0.91088086 -0.012829456 1.9354659 6710886
-0.99047363 0.012722624 1.9357957 8158332
0.91087604 0.012829367 1.9354554 6710886
-0.9904862 0.037575036 1.9359941 8158332
0.91087174 0.037686098 1.935446 6710886
-0.99046767 0.062444843 1.935784 8158332
0.91086727 0.062542602 1.9354364 6710886
-0.99047613 0.087534092 1.9358284 8158332
0.91085279 0.087668993 1.9352583 6710886
-0.99386162 -0.38274443 1.9616889 9013641
0.91408527 -0.38298464 1.9593776 6776679
-0.99377251 -0.36240926 1.9612985 9276813
0.91412842 -0.36267123 1.9596932 6842472
-0.99376768 -0.33753616 1.9614139 9276813
0.9140318 -0.33749729 1.9593183 6842472
-0.99376369 -0.31250212 1.9614073 9276813
0.91400003 -0.31271958 1.9593072 6842472
-0.99367046 -0.28746772 1.9610978 9276813
0.91399986 -0.28754473 1.9593625 6842472
-0.99367255 -0.26243144 1.9611855 9276813
0.91392034 -0.26237017 1.9591355 6842472
-0.99362546 -0.23756555 1.961008 9211020
0.91387439 -0.23760405 1.9589798 6842472
-0.99363124 -0.2125328 1.9611439 9276813
0.9138397 -0.21263364 1.9589903 6842472
-0.99357802 -0.18734476 1.9609566 9211020
0.91384172 -0.18747491 1.9589955 6842472
-0.99354684 -0.16247585 1.9609363 9211020
0.91377616 -0.16250557 1.9588827 6842472
-0.9935323 -0.13745373 1.9608669 9211020
0.91369951 -0.13754682 1.9585783 6842472
-0.99351072 -0.11242676 1.9609072 9276813
0.913746 -0.11258993 1.9588754 6842472
-0.99342042 -0.087407924 1.9605637 9211020
0.91361666 -0.087432034 1.9584296 6776679
-0.99344146 -0.062547654 1.9607284 9211020
0.91362041 -0.062477238 1.9585201 6776679
-0.99341166 -0.037365027 1.9606689 9211020
0.91358012 -0.037322462 1.9584339 6776679
-0.99338156 -0.012183919 1.9606098 9211020
0.91353983 -0.012169884 1.9583471 6776679
-0.99335247 0.012183442 1.9605523 9211020
0.91350657 0.012169301 1.9582759 6776679
-0.99332267 0.037361547 1.9604931 9211020
0.91348118 0.037318252 1.9582214 6776679
-0.99329263 0.06253814 1.9604343 9211020
0.91345596 0.062465832 1.9581674 6776679
-0.99321836 0.087390088 1.960164 9211020
0.91339201 0.087410405 1.9579469 6776679
-0.99980992 -0.38283604 1.983008 9671571
0.92033398 -0.38258314 1.9816978 7566195
-0.99976045 -0.3622798 1.9829099 10197915
0.92027593 -0.36203557 1.9815732 7763574
-0.99970126 -0.33761492 1.9827923 10197915
0.92020643 -0.33738184 1.9814233 7763574
-0.99964172 -0.31295294 1.9826745 10197915
0.92013705 -0.3127318 1.9812737 7763574
-0.9995808 -0.28747198 1.9825535 10197915
0.92006743 -0.28808549 1.9811238 7763574
-0.99951988 -0.26199424 1.9824327 10132122
0.91999561 -0.26262158 1.9809693 7763574
-0.99946088 -0.2373413 1.9823158 10132122
0.91992378 -0.23716161 1.9808151 7697781
-0.99940199 -0.21269129 1.9821991 10132122
0.9198544 -0.21252671 1.9806651 7697781
-0.9993431 -0.18804413 1.982082 10132122
0.91978478 -0.18789555 1.9805156 7697781
-0.99928224 -0.16257849 1.9819614 10132122
0.91971314 -0.16244727 1.980361 7697781
-0.99922138 -0.13711594 1.9818407 10132122
0.91964138 -0.13700293 1.9802067 7697781
-0.9991625 -0.11247774 1.9817238 10132122
0.91957188 -0.11238316 1.980057 7697781
-0.99910361 -0.087842435 1.9816071 10132122
0.91950244 -0.087767117 1.9799075 7697781
-0.99904275 -0.062389001 1.9814864 10066329
0.91943079 -0.062334463 1.9797533 7631988
-0.99898189 -0.036938649 1.9813657 10066329
0.91935915 -0.036905739 1.9795986 7631988
-0.998923 -0.012312236 1.981249 10066329
0.91928977 -0.012301088 1.9794496 7631988
-0.99886423 0.012311271 1.9811321 10066329
0.91922075 0.012299855 1.9793007 7631988
-0.99880528 0.036931876 1.9810156 10066329
0.91915154 0.036897101 1.979152 7631988
-1.0011899 0.072514169 1.9890139 10263708
-0.99874455 0.062370107 1.980895 10066329
0.91908014 0.062310338 1.9789982 7631988
-1.0011525 0.08816722 1.9889393 10263708
-0.99868369 0.087805271 1.9807743 10066329
0.91900879 0.087719671 1.9788443 7566195
-1.2046542 -0.38395298 2.8961811 6645093
-1.186161 -0.38404098 2.8886652 6645093
-1.1623791 -0.3847585 2.8827777 6447714
-1.1374491 -0.3843219 2.8809569 6513507
-1.1121085 -0.3846401 2.8833425 6447714
-1.086887 -0.3840442 2.8903315 6710886
-1.0707476 -0.38412511 2.8974793 6579300
0.99221838 -0.3839311 2.8960156 6645093
1.0124018 -0.3844105 2.8873301 6579300
1.0372137 -0.38433096 2.8810263 6513507
1.0627755 -0.38407806 2.8791289 6645093
1.087489 -0.38438058 2.8813977 6513507
1.1112818 -0.38432929 2.8878441 6513507
1.1302634 -0.38395298 2.8961816 6645093
-1.2046908 -0.36236668 2.8962693 6710886
-1.1858665 -0.3624869 2.8886425 6710886
-1.1622515 -0.36278573 2.8828118 6710886
-1.137476 -0.36284655 2.8810253 6710886
-1.1118598 -0.36269194 2.8834596 6710886
-1.0874559 -0.36252433 2.890188 6710886
-1.0707688 -0.36252528 2.8975365 6710886
0.99223804 -0.36234218 2.8960745 6710886
1.0120324 -0.36246768 2.8875175 6710886
1.037237 -0.36285487 2.8810904 6710886
1.0624584 -0.36284801 2.8791776 6710886
1.0872283 -0.36249322 2.8814473 6710886
1.1113976 -0.36239824 2.8879354 6710886
1.1302974 -0.36236653 2.8962686 6710886
-1.2048411 -0.3374663 2.8964286 6710886
-1.1860166 -0.33749279 2.8887699 6710886
-1.161909 -0.33774802 2.8828411 6710886
-1.1375076 -0.33779073 2.8811047 6710886
-1.1124289 -0.33765501 2.8834314 6710886
-1.0871674 -0.33757159 2.8903775 6710886
-1.0707936 -0.33732429 2.8976038 6710886
0.99212575 -0.33748201 2.8962133 6710886
1.0120569 -0.33735454 2.8875875 6710886
1.0372642 -0.337798 2.8811655 6710886
1.0616105 -0.33756828 2.8792059 6710886
1.0861894 -0.33771327 2.8813772 6710886
1.1115474 -0.33741111 2.8880711 6710886
1.130442 -0.33746579 2.8964243 6710886
-1.2046632 -0.31230846 2.8964138 6710886
-1.1860545 -0.31237021 2.8888624 6710886
-1.1621259 -0.31292546 2.8829522 6710886
-1.1375389 -0.31273362 2.8811843 6710886
-1.1120131 -0.31276029 2.8835933 6710886
-1.0873762 -0.3124423 2.8903754 6710886
-1.0708183 -0.3121222 2.8976705 6710886
0.99242508 -0.3123228 2.8961329 6710886
1.0119159 -0.31242946 2.8877106 6710886
1.0372919 -0.31273991 2.8812423 6710886
1.0616401 -0.31252769 2.8792868 6710886
1.0863286 -0.31276625 2.8814843 6710886
1.111694 -0.31242043 2.8881986 6710886
1.1302651 -0.31230816 2.89641 6710886
-1.2049311 -0.28768763 2.8966348 6710886
-1.1860924 -0.28724623 2.8889556 6710886
-1.1621605 -0.28785217 2.8830369 6710886
-1.1375704 -0.28767514 2.881264 6710886
-1.1123865 -0.28770697 2.8835955 6710886
-1.0873151 -0.28739804 2.8904808 6710886
-1.0707688 -0.28780091 2.8977747 6710886
0.99222112 -0.28779247 2.8963199 6710886
1.0122833 -0.28733441 2.8876746 6710886
1.0373185 -0.28768057 2.8813162 6710886
1.0616697 -0.28748572 2.8793659 6710886
1.0863606 -0.28770575 2.8815694 6710886
1.111499 -0.28731745 2.8882177 6710886
1.1305255 -0.28768685 2.8966277 6710886
-1.204753 -0.26252821 2.89662 6710886
-1.1863275 -0.26237252 2.8891072 6710886
-1.1621946 -0.26277733 2.8831215 6710886
-1.1376019 -0.26261529 2.8813436 6710886
-1.1122479 -0.26283047 2.8837044 6710886
-1.087252 -0.26235089 2.8905802 6710886
-1.0709369 -0.26263219 2.8977647 6710886
0.99241018 -0.26262036 2.8962984 6710886
1.0118346 -0.26248649 2.8878934 6710886
1.0373459 -0.26261982 2.8813922 6710886
1.061699 -0.26244235 2.8794458 6710886
1.0863924 -0.26264358 2.8816543 6710886
1.1119099 -0.26243815 2.8884304 6710886
1.1303481 -0.26252759 2.8966131 6710886
-1.204903 -0.23761995 2.8967795 6710886
-1.1859599 -0.23727386 2.8890755 6710886
-1.1622285 -0.23770095 2.8832059 6710886
-1.137633 -0.23755403 2.881423 6710886
-1.1122769 -0.23774831 2.8837798 6710886
-1.0874652 -0.237221 2.8905911 6710886
-1.0708915 -0.23770928 2.8978684 6710886
0.99235272 -0.23758961 2.8964081 6710886
1.0124583 -0.23740742 2.8877769 6710886
1.0373729 -0.23755771 2.8814666 6710886
1.0617282 -0.2373976 2.8795254 6710886
1.0864246 -0.23758008 2.8817387 6710886
1.1114255 -0.23735309 2.8883553 6710886
1.130493 -0.23761912 2.8967695 6710886
-1.2049458 -0.21242537 2.8968821 6710886
-1.186471 -0.21264213 2.8893125 6710886
-1.1622629 -0.21262325 2.883291 6710886
-1.1376647 -0.21249135 2.8815022 6710886
-1.1123059 -0.2126648 2.8838539 6710886
-1.0870904 -0.21254869 2.8907931 6710886
-1.0709162 -0.21250258 2.8979356 6710886
0.99237645 -0.21239564 2.8964756 6710886
1.0120057 -0.21275458 2.8880012 6710886
1.0374004 -0.2124944 2.8815444 6710886
1.0617578 -0.2123514 2.8796058 6710886
1.0864564 -0.21251503 2.8818243 6710886
1.1119357 -0.21272878 2.8886068 6710886
1.1305326 -0.21242453 2.8968704 6710886
-1.2049888 -0.18722902 2.8969851 6710886
-1.1859862 -0.18755122 2.8892424 6710886
-1.1622969 -0.18754399 2.8833754 6710886
-1.137696 -0.18742736 2.8815818 6710886
-1.1123347 -0.18757993 2.8839293 6710886
-1.0877247 -0.18744704 2.8906591 6710886
-1.0709411 -0.18729475 2.8980021 6710886
0.99239928 -0.18720049 2.8965435 6710886
1.0123707 -0.1876577 2.8879569 6710886
1.0374272 -0.18742974 2.8816187 6710886
1.0617869 -0.18730387 2.8796856 6710886
1.0864886 -0.18744859 2.8819082 6710886
1.1115593 -0.18763353 2.8885517 6710886
1.1305721 -0.18722811 2.8969719 6710886
-1.2051779 -0.16260631 2.8971646 6710886
-1.1862804 -0.16279867 2.8894134 6710886
-1.1623312 -0.16246326 2.88346 6710886
-1.1377273 -0.1623619 2.8816614 6710886
-1.1123635 -0.1624939 2.8840046 6710886
-1.0874468 -0.16287848 2.8908305 6710886
-1.0708953 -0.16236685 2.8981056 6710886
0.99225789 -0.1624952 2.8966992 6710886
1.0122309 -0.16272376 2.8880835 6710886
1.0374546 -0.16236378 2.881695 6710886
1.0618166 -0.16225502 2.8797648 6710886
1.0865204 -0.16238061 2.8819938 6710886
1.1117954 -0.16275932 2.8887155 6710886
1.1307548 -0.16260538 2.8971474 6710886
-1.2049263 -0.13745537 2.89711 6710886
-1.1863188 -0.13766503 2.8895056 6710886
-1.1623657 -0.13738102 2.8835452 6710886
-1.1377587 -0.1372951 2.881741 6710886
-1.1123925 -0.13740647 2.8840795 6710886
-1.0874733 -0.13773149 2.8909013 6710886
-1.0710638 -0.13719563 2.8980966 6710886
0.99261159 -0.13734454 2.896589 6710886
1.0122557 -0.13760066 2.8881552 6710886
1.0374818 -0.13729651 2.8817718 6710886
1.0618461 -0.13720474 2.8798449 6710886
1.0865523 -0.13731118 2.8820779 6710886
1.1118309 -0.13763179 2.8888075 6710886
1.1305056 -0.1374547 2.897095 6710886
-1.2051152 -0.11282929 2.8972888 6710886
-1.1863567 -0.11252978 2.8895986 6710886
-1.1623998 -0.11229736 2.88363 6710886
-1.1377902 -0.11222693 2.8818207 6710886
-1.1124214 -0.11231781 2.8841541 6710886
-1.0874999 -0.11258328 2.8909712 6710886
-1.0710138 -0.11286479 2.8982005 6710886
0.99303812 -0.11324669 2.8964379 6710886
1.0122808 -0.11247636 2.888226 6710886
1.037509 -0.11222789 2.8818445 6710886
1.0618753 -0.11215306 2.8799233 6710886
1.0865844 -0.11224024 2.8821633 6710886
1.111867 -0.11250263 2.8889005 6710886
1.1306885 -0.11282855 2.8972707 6710886
-1.2051581 -0.087625831 2.897392 6710886
-1.1863945 -0.087392926 2.8896909 6710886
-1.162434 -0.087212175 2.8837147 6710886
-1.1378216 -0.087157354 2.8819001 6710886
-1.1124501 -0.087227747 2.8842287 6710886
-1.0875262 -0.087433815 2.8910422 6710886
-1.0710387 -0.087652318 2.8982673 6710886
0.99350578 -0.087591864 2.8962681 6710886
1.0123062 -0.087350778 2.8882976 6710886
1.0375365 -0.087157957 2.881922 6710886
1.0619048 -0.087099977 2.8800037 6710886
1.0866163 -0.087167859 2.8822491 6710886
1.111902 -0.087371804 2.8889935 6710886
1.1307281 -0.087625228 2.8973718 6710886
-1.2048239 -0.063098103 2.8972914 6710886
-1.1864328 -0.062254481 2.8897834 6710886
-1.1624678 -0.062125586 2.8837996 6710886
-1.1378531 -0.062086355 2.8819797 6710886
-1.1124794 -0.062136449 2.884304 6710886
-1.0875529 -0.062283121 2.8911126 6710886
-1.0710638 -0.062438704 2.898334 6710886
0.99352896 -0.062395658 2.8963351 6710886
1.0123311 -0.062224008 2.8883684 6710886
1.0375634 -0.062086757 2.8819969 6710886
1.0619342 -0.062045526 2.8800831 6710886
1.0866486 -0.062093992 2.882333 6710886
1.1119382 -0.062239468 2.8890855 6710886
1.1307678 -0.06242013 2.8974733 6710886
-1.2036988 -0.037202939 2.8967707 6710886
-1.1864706 -0.037114393 2.8898757 6710886
-1.1617885 -0.036695257 2.8838074 6710886
-1.137252 -0.037325248 2.882035 6710886
-1.1125082 -0.037043814 2.8843784 6710886
-1.0875796 -0.037131213 2.8911824 6710886
-1.0715626 -0.038169116 2.8981452 6710886
0.99355215 -0.037198249 2.8964031 6710886
1.0123558 -0.037095975 2.8884392 6710886
1.0375907 -0.037014198 2.8820717 6710886
1.0619633 -0.036989659 2.880163 6710886
1.0866807 -0.037018634 2.8824186 6710886
1.1119738 -0.037105445 2.8891795 6710886
1.1300871 -0.038156793 2.8971875 6710886
-1.2037414 -0.012001336 2.8968737 6710886
-1.1865089 -0.011972735 2.8899682 6710886
-1.1612862 -0.01194731 2.8838303 6710886
-1.1367042 -0.011940123 2.8820961 6710886
-1.1125369 -0.011949899 2.8844538 6710886
-1.0876058 -0.011978073 2.8912539 6710886
-1.0721161 -0.012005745 2.897933 6710886
0.99357527 -0.011999691 2.8964715 6710886
1.0123808 -0.011966709 2.8885114 6710886
1.0376179 -0.011940346 2.8821483 6710886
1.0619929 -0.011932448 2.8802428 6710886
1.0867131 -0.011941821 2.882504 6710886
1.1120099 -0.011969848 2.8892713 6710886
1.1293299 -0.012001307 2.896867 6710886
-1.2037823 0.012001875 2.8969722 6710886
-1.186545 0.011973217 2.8900571 6710886
-1.1613184 0.011947754 2.8839111 6710886
-1.1367341 0.011940538 2.8821702 6710886
-1.1125647 0.01195029 2.8845251 6710886
-1.087631 0.011978445 2.8913205 6710886
-1.0721399 0.012006096 2.8979959 6710886
0.99359745 0.012000048 2.8965356 6710886
1.0124047 0.011967083 2.8885796 6710886
1.0376437 0.011940744 2.8822212 6710886
1.062021 0.011932869 2.8803196 6710886
1.086744 0.011942264 2.8825855 6710886
1.1120436 0.011970335 2.8893595 6710886
1.1293675 0.012001839 2.8969634 6710886
-1.203825 0.037207007 2.8970745 6710886
-1.1865828 0.037118062 2.8901491 6710886
-1.1613529 0.03703903 2.883996 6710886
-1.1367655 0.0370166 2.8822491 6710886
-1.1125934 0.037046768 2.8846004 6710886
-1.0876579 0.037133984 2.8913918 6710886
-1.0721644 0.03721967 2.8980632 6710886
0.99362069 0.037200924 2.8966031 6710886
1.0124301 0.037098791 2.8886507 6710886
1.0376711 0.037017189 2.8822961 6710886
1.0620502 0.036992814 2.8803997 6710886
1.0867761 0.037022017 2.8826718 6710886
1.1120791 0.037109107 2.8894525 6710886
1.1294073 0.037206877 2.8970644 6710886
-1.2038677 0.062413897 2.8971777 6710886
-1.1866211 0.062264491 2.8902421 6710886
-1.1613868 0.06213174 2.8840802 6710886
-1.1367965 0.062093992 2.882329 6710886
-1.1126223 0.062144551 2.8846753 6710886
-1.0876845 0.062290739 2.8914616 6710886
-1.0721893 0.06243439 2.8981295 6710886
0.99364388 0.062402964 2.8966713 6710886
1.012455 0.062231716 2.8887219 6710886
1.037698 0.062094916 2.8823705 6710886
1.0620799 0.062054139 2.8804777 6710886
1.0868086 0.062103242 2.8827577 6710886
1.1121147 0.062249463 2.8895457 6710886
1.1294467 0.062413648 2.8971663 6710886
-1.2039107 0.08762262 2.8972807 6710886
-1.1866589 0.087412536 2.8903344 6710886
-1.1614212 0.087225929 2.8841655 6710886
-1.1368278 0.087172821 2.8824079 6710886
-1.1126512 0.087243646 2.8847501 6710886
-1.0877109 0.087448753 2.8915324 6710886
-1.0722139 0.087650299 2.8981969 6710886
0.99366713 0.087606207 2.896739 6710886
1.0124798 0.087365955 2.8887939 6710886
1.0377251 0.087173991 2.8824468 6710886
1.0621089 0.087116875 2.880559 6710886
1.0868409 0.087185971 2.8828435 6710886
1.1121507 0.087391481 2.8896387 6710886
1.1294861 0.087622203 2.8972671 6710886
-1.234497 -0.38411617 2.9156427 6645093
-1.2168809 -0.3845489 2.9027267 6513507
-1.0580789 -0.38443619 2.9045715 6513507
-1.0408617 -0.38426316 2.9176564 6513507
0.96361262 -0.38426837 2.9154027 6579300
0.98015416 -0.38458216 2.9025564 6447714
1.1423647 -0.38456312 2.9028342 6447714
1.1583256 -0.38426909 2.9151537 6579300
-1.2345427 -0.36238688 2.91575 6710886
-1.2172167 -0.36257535 2.9029763 6710886
-1.0576198 -0.36262068 2.9049156 6710886
-1.0406928 -0.36250436 2.9178641 6710886
0.96391922 -0.3625361 2.9152267 6710886
0.97995597 -0.36266783 2.9027452 6710886
1.1427093 -0.36259371 2.9031231 6710886
1.1580427 -0.36255366 2.9149907 6710886
-1.2347137 -0.33743447 2.9159691 6710886
-1.2169645 -0.33737028 2.9029212 6710886
-1.0580204 -0.33738032 2.9047587 6710886
-1.0406989 -0.33752739 2.9179382 6710886
0.96363258 -0.33757946 2.9155357 6710886
0.98020852 -0.33746108 2.9026785 6710886
1.1424501 -0.33738485 2.9030468 6710886
1.1584361 -0.33767563 2.9153926 6710886
-1.2343819 -0.31228837 2.915776 6710886
-1.2171545 -0.31270719 2.9031007 6710886
-1.0577048 -0.31262714 2.905035 6710886
-1.0410001 -0.31229809 2.9177723 6710886
0.96401745 -0.31242853 2.9152975 6710886
0.9801169 -0.31267586 2.9028103 6710886
1.1426413 -0.31272227 2.9032412 6710886
1.1580743 -0.31234363 2.9151766 6710886
-1.2346972 -0.28753051 2.9161148 6710886
-1.217198 -0.28746027 2.9032049 6710886
-1.0580152 -0.28738025 2.9049065 6710886
-1.0408409 -0.28771442 2.91798 6710886
0.96385854 -0.28747058 2.9155128 6710886
0.98013937 -0.2874279 2.9028773 6710886
1.1426828 -0.28747442 2.9033473 6710886
1.1583238 -0.28746587 2.9154601 6710886
-1.2350135 -0.26276499 2.9164531 6710886
-1.2172413 -0.26221156 2.9033082 6710886
-1.0578994 -0.26237044 2.9050655 6710886
-1.0406876 -0.26272336 2.918185 6710886
0.9636876 -0.26260722 2.9157264 6710886
0.98016196 -0.26217881 2.9029443 6710886
1.1427244 -0.26222473 2.9034534 6710886
1.158573 -0.26258186 2.9157434 6710886
-1.2345364 -0.23742384 2.9161425 6710886
-1.2174313 -0.23753986 2.9034886 6710886
-1.0577152 -0.23761778 2.9052546 6710886
-1.0410665 -0.23736757 2.9179554 6710886
0.96416974 -0.23736425 2.9154098 6710886
0.98010552 -0.23787528 2.9030576 6710886
1.1428852 -0.23785943 2.9036374 6710886
1.1582112 -0.23725238 2.9155276 6710886
-1.2348524 -0.21265426 2.9164813 6710886
-1.2171792 -0.21233259 2.9034328 6710886
-1.0581568 -0.21238491 2.9050677 6710886
-1.0409067 -0.21277697 2.918164 6710886
0.96391904 -0.21259709 2.9156959 6710886
0.98028016 -0.21265323 2.9030302 6710886
1.1426917 -0.21263663 2.9035833 6710886
1.158464 -0.2126056 2.9158132 6710886
-1.2351357 -0.18767758 2.9167929 6710886
-1.2173694 -0.18765739 2.9036136 6710886
-1.0579697 -0.18776368 2.9052584 6710886
-1.0408523 -0.18751991 2.9182885 6710886
0.96370262 -0.18762363 2.915956 6710886
0.98022878 -0.18762691 2.903142 6710886
1.1428479 -0.18766727 2.9037662 6710886
1.1587135 -0.18771118 2.9160964 6710886
-1.2347174 -0.16233784 2.9165308 6710886
-1.2174128 -0.16240157 2.903717 6710886
-1.0579937 -0.16249146 2.9053233 6710886
-1.041033 -0.1621497 2.9182212 6710886
0.96420473 -0.16228709 2.9156187 6710886
0.98025119 -0.16237319 2.903209 6710886
1.1428896 -0.16241024 2.9038718 6710886
1.1583515 -0.1623842 2.9158812 6710886
-1.2350072 -0.13775921 2.9168463 6710886
-1.2174561 -0.137144 2.903821 6710886
-1.0580173 -0.13721809 2.9053891 6710886
-1.0409725 -0.13783017 2.9183486 6710886
0.96398032 -0.13771367 2.9158819 6710886
0.98027384 -0.13711828 2.903276 6710886
1.1429317 -0.13715146 2.9039788 6710886
1.158604 -0.13772707 2.9161663 6710886
-1.2350599 -0.11238726 2.9169712 6710886
-1.2174975 -0.11308748 2.9039195 6710886
-1.0578929 -0.11286275 2.9055507 6710886
-1.0409946 -0.11244278 2.9184108 6710886
0.96392161 -0.11244223 2.9160104 6710886
0.98094785 -0.11253617 2.902983 6710886
1.1429729 -0.11309389 2.9040837 6710886
1.1586518 -0.11236086 2.9162858 6710886
-1.2351123 -0.08701317 2.9170947 6710886
-1.217541 -0.087826364 2.9040225 6710886
-1.0582038 -0.087620184 2.9054232 6710886
-1.0410171 -0.087054357 2.918473 6710886
0.96419472 -0.087177679 2.9158604 6710886
0.98133212 -0.087790944 2.9028502 6710886
1.1430163 -0.087831527 2.9041941 6710886
1.1586994 -0.086992614 2.916405 6710886
-1.2351619 -0.062845372 2.9172127 6710886
-1.2170447 -0.061970528 2.9038389 6710886
-1.0580876 -0.062594846 2.9055817 6710886
-1.041038 -0.06287384 2.9185326 6710886
0.96498275 -0.062803172 2.9152522 6710886
0.98135483 -0.062537447 2.9029181 6710886
1.1430597 -0.062567309 2.9043045 6710886
1.1587443 -0.062830448 2.9165192 6710886
-1.2347714 -0.037923984 2.9169707 6710886
-1.2160778 -0.037288081 2.9034002 6710886
-1.0586814 -0.036969576 2.9053252 6710886
-1.0410604 -0.037483264 2.9185958 6710886
0.96500379 -0.037441131 2.9153156 6710886
0.98137736 -0.037282776 2.9029849 6710886
1.1421748 -0.036573485 2.9038885 6710886
1.1587919 -0.037458096 2.9166384 6710886
-1.2334104 -0.012080283 2.9159338 6710886
-1.2161212 -0.012028802 2.9035034 6710886
-1.059132 -0.012035642 2.9051483 6710886
-1.0410827 -0.012091614 2.9186578 6710886
0.96502465 -0.012078026 2.9153788 6710886
0.98140043 -0.012026951 2.9030516 6710886
1.1415967 -0.012029363 2.90364 6710886
1.1588395 -0.012083702 2.9167585 6710886
-1.2334601 0.012080934 2.9160519 6710886
-1.2161632 0.012029354 2.9036036 6710886
-1.0591549 0.012035983 2.9052105 6710886
-1.0411038 0.012091941 2.9187181 6710886
0.96504462 0.01207836 2.9154398 6710886
0.98142171 0.012027306 2.903116 6710886
1.1416371 0.012029933 2.9037442 6710886
1.1588846 0.01208433 2.916872 6710886
-1.2335122 0.037452318 2.9161756 6710886
-1.216208 0.037292238 2.9037106 6710886
-1.0591786 0.037312314 2.9052768 6710886
-1.0411264 0.037485737 2.9187803 6710886
0.96506542 0.037443653 2.9155028 6710886
0.9814446 0.037285432 2.9031823 6710886
1.1416798 0.03729406 2.9038527 6710886
1.1589322 0.037462808 2.9169919 6710886
-1.2335647 0.062825844 2.9162989 6710886
-1.2162532 0.062556975 2.9038184 6710886
-1.0592026 0.062589765 2.9053419 6710886
-1.0414068 0.062583528 2.9186301 6710886
0.96508664 0.062810004 2.9155662 6710886
0.98146719 0.062544681 2.90325 6710886
1.1417224 0.062560037 2.9039605 6710886
1.1589797 0.062843353 2.9171112 6710886
-1.2336144 0.086993113 2.9164166 6710886
-1.2162979 0.08782357 2.9039252 6710886
-1.0594186 0.087526701 2.9052854 6710886
-1.0421066 0.087044321 2.9181342 6710886
0.96519214 0.087086774 2.9155564 6710886
0.98148996 0.087805152 2.9033177 6710886
1.141644 0.08760231 2.9039872 6710886
1.1590248 0.087017223 2.9172256 6710886
-1.2583139 -0.38458443 2.9405036 6579300
-1.2483666 -0.38457936 2.9283595 6710886
-1.0288736 -0.38402793 2.929091 6710886
-1.0188907 -0.3843261 2.9413476 6579300
0.94222528 -0.38416547 2.9381497 6645093
0.95171839 -0.38432449 2.9264183 6710886
1.1720022 -0.38392654 2.9283197 6710886
1.1811749 -0.38425216 2.9394729 6447714
-1.2587698 -0.36267304 2.9411373 6710886
-1.248428 -0.3627598 2.9285035 6710886
-1.0290848 -0.36223117 2.9289033 6710886
-1.0186954 -0.3625437 2.9416451 6710886
0.94186801 -0.36284646 2.9386506 6710886
0.95127285 -0.36031353 2.927038 6710886
1.1717862 -0.36213481 2.9281261 6710886
1.1813869 -0.36294106 2.9397984 6710886
-1.2587066 -0.33752066 2.9411733 6710886
-1.2484999 -0.33730108 2.9286718 6710886
-1.0290234 -0.33734557 2.9290576 6710886
-1.0188292 -0.33741874 2.94156 6710886
0.94126105 -0.33758786 2.9394751 6710886
0.95088452 -0.337176 2.9275854 6710886
1.1719601 -0.33727181 2.9284172 6710886
1.1815627 -0.33797774 2.9400914 6710886
-1.2586457 -0.31236985 2.9412143 6710886
-1.2485681 -0.31305197 2.9288318 6710886
-1.0289803 -0.31276411 2.929188 6710886
-1.018943 -0.31229529 2.9415016 6710886
0.94144803 -0.31243062 2.9393241 6710886
0.95090234 -0.31292459 2.92764 6710886
1.1720202 -0.31302363 2.9285667 6710886
1.1813997 -0.31244436 2.939975 6710886
-1.2589157 -0.2876119 2.9416621 6710886
-1.2486401 -0.28758752 2.9290009 6710886
-1.029122 -0.28731453 2.9290967 6710886
-1.0188371 -0.28761679 2.9417105 6710886
0.94142991 -0.28754017 2.939425 6710886
0.95092112 -0.28745967 2.9276972 6710886
1.1720833 -0.28756043 2.9287248 6710886
1.1815757 -0.28747579 2.9402688 6710886
-1.2591946 -0.26284632 2.9421289 6710886
-1.2487123 -0.26212025 2.9291704 6710886
-1.0290823 -0.26212525 2.9292254 6710886
-1.0187024 -0.26277924 2.941958 6710886
0.94120347 -0.26263738 2.9397886 6710886
0.95093983 -0.26199371 2.9277551 6710886
1.1721464 -0.2620945 2.9288821 6710886
1.1816368 -0.263127 2.9404204 6710886
-1.2591212 -0.23768227 2.9421408 6710886
