# .PCD v0.7 - Point Cloud Data file format
VERSION 0.7
FIELDS x y z rgb
SIZE 4 4 4 4
TYPE F F F U
COUNT 1 1 1 1
WIDTH 483
HEIGHT 1
VIEWPOINT 0 0 0 1 0 0 0
POINTS 483
DATA ascii
0.6405704 -0.81275296 4.4688087 657930
0.6628024 -0.81253392 4.4559474 657930
0.64037293 -0.78713894 4.4690037 657930
0.66310281 -0.78777289 4.455853 657930
0.64042079 -0.76215899 4.4690547 657930
0.66275197 -0.76244915 4.4561357 657930
0.64099652 -0.73784161 4.4687996 657930
0.66240138 -0.73712111 4.4564199 657930
0.64061254 -0.71282542 4.469101 657930
0.66270125 -0.71235776 4.4563246 657930
0.64062339 -0.68691623 4.4691763 657930
0.66322798 -0.68787521 4.456099 657930
0.64023936 -0.66189373 4.4694791 657930
0.66279531 -0.6628018 4.4564281 657930
0.64103866 -0.63790941 4.4690924 657930
0.66280663 -0.63696522 4.4565029 657930
0.64065462 -0.61288512 4.4693947 657930
0.66237408 -0.61188447 4.4568334 657930
0.64066547 -0.58697236 4.4694705 657930
0.6632812 -0.58796096 4.4563847 657930
0.64028144 -0.56194127 4.4697723 657930
0.66283882 -0.56314152 4.4567194 657930
0.64108074 -0.53796428 4.4693856 657930
0.66284996 -0.53730142 4.4567947 657930
0.64069664 -0.51293141 4.4696875 657930
0.66249943 -0.51195538 4.4570785 657930
0.64070755 -0.48701537 4.4697638 657930
0.66302234 -0.48774129 4.4568529 657930
0.64032352 -0.46197593 4.4700656 657930
0.66309494 -0.4632242 4.4568892 657930
0.64112282 -0.43800583 4.4696798 657930
0.66289335 -0.43762475 4.4570875 657930
0.64073873 -0.41296473 4.4699817 657930
0.66290462 -0.41178033 4.4571629 657930
0.64164984 -0.3875854 4.4695354 657930
0.66246194 -0.38694203 4.4574976 657930
0.6421507 -0.36210072 4.4693251 657930
0.66336948 -0.36303762 4.4570494 657930
0.64279217 -0.33814457 4.4690313 657930
0.66293675 -0.33793488 4.4573789 657930
0.64249206 -0.31291553 4.4692855 657930
0.66294807 -0.31208721 4.4574547 657930
0.64250284 -0.28699839 4.4693608 657930
0.66259742 -0.28672299 4.4577379 657930
0.64219278 -0.26213214 4.4696193 657930
0.66335577 -0.26280943 4.457375 657930
0.64283442 -0.23818098 4.4693246 657930
0.6629802 -0.23823196 4.4576707 657930
0.6425342 -0.21294464 4.4695778 657930
0.6629914 -0.21238093 4.457747 657930
0.64254504 -0.18702412 4.4696546 657930
0.66300273 -0.18652904 4.4578214 657930
0.64223504 -0.16215046 4.4699121 657930
0.66301316 -0.16252291 4.4578924 657930
0.67659968 -0.16223641 4.4500337 657930
0.64287663 -0.13820434 4.4696178 657930
0.66302365 -0.13851599 4.4579625 657930
0.67661029 -0.13827182 4.4501038 657930
0.64257634 -0.11296064 4.4698715 657930
0.6630348 -0.11266159 4.4580374 657930
0.67662174 -0.11246298 4.4501791 657930
0.6425873 -0.087036721 4.4699478 657930
0.66304606 -0.086806305 4.4581141 657930
0.67663324 -0.08665327 4.4502544 657930
0.64228725 -0.061787322 4.4702015 657930
0.66305655 -0.062797032 4.4581842 657930
0.67664379 -0.062686317 4.4503245 657930
0.64292848 -0.037846215 4.4699073 657930
0.6630671 -0.038786989 4.4582543 657930
0.6766544 -0.038718615 4.4503946 657930
0.64261848 -0.012963515 4.4701653 657930
0.66307831 -0.012929195 4.4583297 657930
0.6766659 -0.0129064 4.45047 657930
0.6426295 0.012963812 4.4702411 657930
0.66308957 0.012929484 4.4584055 657930
0.67667735 0.012906688 4.4505453 657930
0.64296043 0.037848167 4.4701281 657930
0.6631009 0.038789045 4.4584813 657930
0.67668897 0.038720656 4.4506211 657930
0.64233929 0.061792396 4.4705648 657930
0.66311139 0.062802278 4.4585533 657930
0.67669964 0.062691547 4.4506917 657930
0.6426608 0.087046757 4.4704595 657930
0.6631217 0.086816274 4.4586225 657930
0.67671025 0.086663201 4.4507613 657930
0.597579 -0.85820532 4.4935327 2171169
0.61137682 -0.85933387 4.4855471 593161
0.62685448 -0.85867977 4.4765959 657930
0.59758705 -0.83773881 4.4935927 2171169
0.61175221 -0.83759439 4.4853983 657930
0.6268636 -0.83643687 4.4766612 657930
0.59759659 -0.81355035 4.4936643 2171169
0.61118066 -0.81236053 4.4858108 657930
0.62687349 -0.8123396 4.4767323 657930
0.59760672 -0.78750044 4.493741 2171169
0.6111809 -0.7874161 4.4858894 657930
0.62688345 -0.78824151 4.4768033 657930
0.59761703 -0.76144969 4.4938188 2171169
0.61186504 -0.7630409 4.4855714 657930
0.62689412 -0.76228893 4.4768796 657930
0.59762645 -0.73725885 4.4938893 2171169
0.6114257 -0.73780727 4.4859056 657930
0.62690485 -0.7363354 4.4769559 657930
0.59763592 -0.71306711 4.4939604 2171169
0.61122084 -0.71205264 4.4861054 657930
0.6269148 -0.71223497 4.4770265 657930
0.59764618 -0.6870138 4.4940376 2171169
0.61129254 -0.68737531 4.4861422 657930
0.62692463 -0.68813372 4.4770975 657930
0.59765571 -0.66282064 4.4941096 2171169
0.61182243 -0.66299534 4.4859133 657930
0.62693542 -0.66217774 4.4771738 657930
0.59766519 -0.63862664 4.4941807 2171169
0.61146599 -0.63749266 4.4862003 657930
0.62681377 -0.63708717 4.4773235 657930
0.59767538 -0.6125707 4.4942575 2171169
0.61110985 -0.61198574 4.4864879 657930
0.62708753 -0.61310488 4.4772415 657930
0.59768575 -0.58651394 4.4943347 2171169
0.61163884 -0.58760685 4.4862595 657930
0.62696588 -0.58801275 4.4773917 657930
0.59769511 -0.56231755 4.4944062 2171169
0.6117115 -0.56292874 4.4862957 657930
0.62697655 -0.56205332 4.477468 657930
0.59770459 -0.53812033 4.4944773 2171169
0.61150628 -0.53716481 4.4864964 657930
0.6268549 -0.5369578 4.4776187 657930
0.5977149 -0.512061 4.494555 2171169
0.611067 -0.51190782 4.4868317 657930
0.62712872 -0.51297575 4.4775362 657930
0.59772444 -0.48786223 4.494626 2171169
0.6119855 -0.48783335 4.4863768 657930
0.62700713 -0.48787862 4.4776869 657930
0.59773391 -0.46366268 4.4946971 2171169
0.61153615 -0.46283928 4.4867153 657930
0.62701786 -0.46191576 4.4777632 657930
0.59774405 -0.43760079 4.4947743 2171169
0.61154658 -0.4368237 4.4867916 657930
0.62702775 -0.43780664 4.4778333 657930
0.59775436 -0.41153798 4.4948511 2171169
0.61116469 -0.41209432 4.4870906 657930
0.6270377 -0.41369671 4.4779043 657930
0.59776378 -0.38733602 4.4949226 2171169
0.61193299 -0.38801324 4.4867239 657930
0.62819231 -0.3864384 4.4773231 657930
0.59777325 -0.36313328 4.4949942 2171169
0.61157638 -0.36248845 4.4870114 657930
0.62877429 -0.36168492 4.4770651 657930
0.59778357 -0.33706793 4.4950709 2171169
0.61137158 -0.33671069 4.4872127 657930
0.62878424 -0.33757791 4.4771361 657930
0.59779304 -0.31286362 4.495142 2171169
0.61183679 -0.31260049 4.4870195 657930
0.62879419 -0.31347018 4.4772072 657930
0.59780258 -0.28865853 4.4952135 2171169
0.61160636 -0.2881459 4.4872308 657930
0.62880492 -0.28750712 4.477283 657930
0.59781277 -0.26259062 4.4952903 2171169
0.61161679 -0.26212427 4.4873071 657930
0.62881553 -0.26154321 4.4773598 657930
0.59782302 -0.23652185 4.4953675 2171169
0.61116725 -0.23710646 4.4876466 657930
0.62882555 -0.23743306 4.4774313 657930
0.59783256 -0.21231432 4.4954391 2171169
0.61208606 -0.2130557 4.4871917 657930
0.62883556 -0.21332212 4.4775019 657930
0.59784204 -0.18810603 4.4955106 2171169
0.61164671 -0.18777195 4.4875259 657930
0.62884629 -0.18735568 4.4775777 657930
0.59785223 -0.16203468 4.4955873 2171169
0.61165702 -0.1617469 4.4876032 657930
0.62885696 -0.16138829 4.477654 657930
0.59786177 -0.13782482 4.4956589 2171169
0.6116668 -0.13758001 4.4876733 657930
0.62886691 -0.13727501 4.477725 657930
0.5978713 -0.11361413 4.4957304 2171169
0.61167651 -0.11341232 4.4877453 657930
0.62887692 -0.11316091 4.4777961 657930
0.59788144 -0.087540247 4.4958072 2171169
0.61168706 -0.087384753 4.4878221 657930
0.62888759 -0.087191038 4.4778724 657930
0.59789175 -0.061465468 4.4958844 2171169
0.61169744 -0.061356287 4.4878979 657930
0.62889832 -0.061220258 4.4779487 657930
0.59790123 -0.037252385 4.4959559 2171169
0.61170721 -0.037186213 4.4879704 657930
0.62890828 -0.037103768 4.4780192 657930
0.59791076 -0.013038516 4.4960275 2171169
0.61171675 -0.013015355 4.4880409 657930
0.62891823 -0.012986501 4.4780908 657930
0.59792095 0.013038812 4.4961042 2171169
0.61172724 0.013015651 4.4881177 657930
0.62892902 0.012986792 4.4781671 657930
0.59793049 0.037254263 4.4961758 2171169
0.61173695 0.037188083 4.4881887 657930
0.62893891 0.037105635 4.4782376 657930
0.59793997 0.061470509 4.4962473 2171169
0.61174667 0.061361298 4.4882603 657930
0.62894899 0.061225262 4.4783087 657930
0.59795034 0.087550402 4.496325 2171169
0.61175722 0.087394871 4.4883375 657930
0.62895977 0.087201096 4.4783854 657930
0.61981827 -1.4276899 4.6318932 1534999
0.64066899 -1.4281855 4.6439066 945166
0.61982536 -1.4123544 4.6319451 550408
0.63837874 -1.4124393 4.6426363 26112
0.61983675 -1.3874335 4.6320324 550408
0.6388191 -1.3874692 4.6429701 26112
0.61984831 -1.362512 4.6321177 550408
0.63840258 -1.3624818 4.6428099 26112
0.61985987 -1.3375894 4.6322045 550408
0.63884276 -1.3375072 4.6431432 26112
0.61987138 -1.3126659 4.6322899 550408
0.63842618 -1.3125207 4.6429825 26112
0.61988288 -1.2877415 4.6323752 550408
0.63880742 -1.2872212 4.6432819 26112
0.62011355 -1.2621435 4.6325898 484871
0.63849849 -1.2622358 4.6431837 26112
0.61969817 -1.2372823 4.6324301 550408
0.63883126 -1.237252 4.6434555 26112
0.6201365 -1.2122887 4.632762 484871
0.63852215 -1.2122669 4.6433573 26112
0.61972111 -1.1874281 4.6326008 550408
0.63885486 -1.1872793 4.6436276 26112
0.62015963 -1.1624302 4.6329336 484871
0.63854593 -1.1622943 4.6435285 26112
0.61974406 -1.1375704 4.6327734 550408
0.63887858 -1.1373026 4.6438007 26112
0.62018269 -1.1125677 4.6331058 484871
0.63829029 -1.112643 4.6435394 26112
0.61976707 -1.0877087 4.6329451 550408
0.63915956 -1.0876386 4.6441202 26112
0.62020558 -1.0627018 4.6332774 484871
0.63770843 -1.0630523 4.643362 26112
0.61979008 -1.0378437 4.6331177 550408
0.63705444 -1.0375015 4.6430659 26112
0.62021792 -1.0121948 4.6334453 484871
0.6362949 -1.0125589 4.6427073 26112
0.61980253 -0.98733723 4.6332855 615945
0.63707805 -0.98752534 4.6432395 26112
0.62024093 -0.96232128 4.6336179 484871
0.63631862 -0.96258599 4.6428814 26112
0.61982554 -0.93746465 4.6334572 615945
0.63710177 -0.93754578 4.6434112 26112
0.62026399 -0.91244423 4.6337891 484871
0.63634223 -0.91260922 4.6430545 26112
0.61902308 -0.89734119 4.6331224 1003279
0.66442531 -1.4281075 4.6575956 945166
0.6857031 -1.4280596 4.6698575 1273363
0.66357219 -1.4126682 4.6571527 26112
0.68455207 -1.4126614 4.6692429 26112
0.66390735 -1.3876177 4.6574259 26112
0.68505317 -1.387512 4.6696119 26112
0.66359717 -1.3625544 4.6573262 26112
0.6845777 -1.3624176 4.6694169 26112
0.6639322 -1.3375003 4.6575999 26112
0.68516886 -1.3377405 4.669837 26112
0.66362184 -1.3124369 4.6575007 26112
0.68453151 -1.3126582 4.669549 26112
0.66395706 -1.287379 4.6577735 26112
0.68519455 -1.2874876 4.6700115 26112
0.66364664 -1.2623161 4.6576748 26112
0.68455708 -1.2624073 4.669724 26112
0.6639818 -1.2372543 4.6579475 26112
0.68522018 -1.2372309 4.670186 26112
0.66339022 -1.2125138 4.6576853 26112
0.68458265 -1.2121527 4.6698985 26112
0.66433012 -1.1877666 4.6583061 26112
0.68517405 -1.1874599 4.6703176 26112
0.66337216 -1.1627084 4.6578331 26112
0.68469834 -1.1623701 4.6701236 26112
0.6643548 -1.1376318 4.6584792 26112
0.68519968 -1.1371961 4.6704922 26112
0.66339689 -1.1125782 4.6580071 26112
0.68472397 -1.1121076 4.6702981 26112
0.66437954 -1.0874937 4.6586533 26112
0.68497133 -1.0874366 4.6705194 26112
0.64921212 -1.055692 4.6500144 26112
0.66342139 -1.0624441 4.6581807 26112
0.68521875 -1.0627623 4.6707406 26112
0.64922047 -1.0383674 4.6500745 26112
0.66440433 -1.0373516 4.6588273 26112
0.68474311 -1.0376754 4.6705461 26112
0.64923257 -1.0133421 4.6501613 26112
0.66344619 -1.0123065 4.6583552 26112
0.68524438 -1.0124891 4.6709156 26112
0.64924467 -0.988316 4.6502481 26112
0.66438657 -0.98752898 4.6589756 26112
0.68476868 -0.98740351 4.6707215 26112
0.64925677 -0.96328884 4.6503344 26112
0.66353548 -0.96248424 4.6585641 26112
0.68536025 -0.96268588 4.6711407 26112
0.64926881 -0.93826091 4.6504211 26112
0.66441149 -0.93737972 4.6591492 26112
0.6847226 -0.93761927 4.6708522 26112
0.64928091 -0.91323185 4.6505075 26112
0.66292787 -0.91477531 4.6583662 25088
0.68505818 -0.91727787 4.6711111 26112
0.69749361 -1.4279234 4.676652 26112
0.71076638 -1.4278325 4.6842999 1076496
0.73155248 -1.4280789 4.6962771 1076496
0.69750166 -1.4124397 4.6767054 26112
0.71276945 -1.4123058 4.6855044 26112
0.72987258 -1.4127499 4.6953583 26112
0.69751477 -1.3872782 4.6767931 26112
0.71225047 -1.3874907 4.6852837 26112
0.72964984 -1.3875183 4.6953096 26112
0.69752777 -1.3621159 4.6768804 26112
0.71239716 -1.3626684 4.6854477 26112
0.72922504 -1.3623159 4.6951456 26112
0.69754082 -1.3369523 4.6769681 26112
0.71240991 -1.3374592 4.685535 26112
0.72968835 -1.3376393 4.6954908 26112
0.69771647 -1.3127073 4.6771464 26112
0.71242374 -1.3122485 4.6856232 26112
0.72926337 -1.3124378 4.6953254 26112
0.69740337 -1.2876388 4.6770458 26112
0.71256948 -1.2874218 4.6857862 26112
0.72949046 -1.2877913 4.6955357 26112
0.69774258 -1.2623749 4.6773219 26112
0.71205103 -1.2626119 4.6855659 26112
0.72950405 -1.262526 4.6956234 26112
0.69742954 -1.2373065 4.6772213 26112
0.71286213 -1.2377634 4.6861129 26112
0.72951776 -1.2372599 4.6957116 26112
0.69760519 -1.2130569 4.6773992 26112
0.71208942 -1.212574 4.6857476 26112
0.72974479 -1.2126071 4.6959209 26112
0.69761831 -1.1878879 4.6774869 26112
0.71288878 -1.1873317 4.6862888 26112
0.72932005 -1.1874075 4.6957564 26112
0.69763136 -1.1627179 4.6775746 26112
0.71211612 -1.1621455 4.6859236 26112
0.72978324 -1.1627151 4.6961021 26112
0.69764429 -1.137547 4.6776624 26112
0.71279103 -1.1372894 4.6863909 26112
0.72935826 -1.1375164 4.6959372 26112
0.69765741 -1.1123753 4.6777501 26112
0.71252918 -1.1124707 4.6863194 26112
0.72958541 -1.1128589 4.696147 26112
0.69767052 -1.0872024 4.6778378 26112
0.71226817 -1.0876535 4.6862478 26112
0.72959912 -1.087587 4.6962342 26112
0.69768357 -1.0620286 4.6779251 26112
0.7129426 -1.062788 4.6867156 26112
0.72961289 -1.0623143 4.6963234 26112
0.69785923 -1.0377682 4.6781039 26112
0.71217024 -1.0376093 4.6863503 26112
0.72983986 -1.0376507 4.6965327 26112
0.69754612 -1.0127004 4.6780033 26112
0.7129814 -1.0127305 4.6868982 26112
0.729415 -1.012454 4.6963673 26112
0.69788545 -0.98741519 4.6782789 26112
0.71220875 -0.98755473 4.686532 26112
0.72987825 -0.98774511 4.6967139 26112
0.69757217 -0.96234757 4.6781783 26112
0.71288359 -0.96267819 4.6870008 26112
0.72945327 -0.96254933 4.6965494 26112
0.69774795 -0.93808252 4.6783562 26112
0.71237177 -0.93748808 4.6867857 26112
0.7296803 -0.93788081 4.6967573 26112
0.69775802 -0.91871405 4.6784239 24576
0.71185821 -0.91977984 4.6865458 24832
0.72968882 -0.92232496 4.6968122 25088
0.74439514 -1.4283803 4.7036762 26112
0.76073062 -1.4281133 4.7130904 879373
0.77884734 -1.4285381 4.7235289 2192417
0.74247575 -1.4118903 4.7026234 26112
0.76182652 -1.4125326 4.7137713 26112
0.77885634 -1.4128994 4.7235837 26112
0.74227506 -1.3871363 4.7025867 26112
0.76138711 -1.3878137 4.7135968 26112
0.778871 -1.3874855 4.7236724 26112
0.74250311 -1.3624542 4.702796 26112
0.76179433 -1.3627845 4.7139115 26112
0.77780354 -1.3638469 4.7231331 26112
0.74207717 -1.3372126 4.702631 26112
0.76164198 -1.3377446 4.7139034 26112
0.77673715 -1.3382573 4.7226 26112
0.74254209 -1.312495 4.7029777 26112
0.7614913 -1.3127054 4.7138963 26112
0.77675188 -1.3128475 4.7226896 26112
0.74211591 -1.287254 4.7028127 26112
0.76189727 -1.2876693 4.7142091 26112
0.77676648 -1.2874366 4.7227783 26112
0.74234396 -1.262567 4.703022 26112
0.76118809 -1.262627 4.713881 26112
0.77678114 -1.2620249 4.7228675 26112
0.74257189 -1.2378771 4.7032328 26112
0.76215279 -1.2375879 4.7145162 26112
0.77679586 -1.236612 4.7229571 26112
0.74214602 -1.2126375 4.7030668 26112
0.76154745 -1.2125463 4.7142467 26112
0.77680945 -1.2131532 4.7230401 26112
0.74261093 -1.1879083 4.7034135 26112
0.76172805 -1.1875035 4.7144303 26112
0.77682412 -1.1877385 4.7231288 26112
0.74218482 -1.1626694 4.7032485 26112
0.7619071 -1.1624584 4.7146139 26112
0.77683878 -1.162323 4.7232184 26112
0.74241281 -1.1379745 4.7034588 26112
0.76130271 -1.137421 4.7143459 26112
0.7768535 -1.1369065 4.7233076 26112
0.74242681 -1.1126639 4.703547 26112
0.76222366 -1.1126888 4.7149544 26112
0.77686816 -1.1114889 4.7233968 26112
0.74244088 -1.0873523 4.7036357 26112
0.7616182 -1.0876518 4.7146859 26112
0.77688175 -1.0880258 4.7234793 26112
0.74266875 -1.0626513 4.7038455 26112
0.76179874 -1.0626019 4.714869 26112
0.77689648 -1.0626065 4.7235684 26112
0.74224269 -1.0374144 4.7036805 26112
0.76197791 -1.0375494 4.7150521 26112
0.7769112 -1.0371861 4.7236581 26112
0.74270779 -1.0126691 4.7040267 26112
0.7613734 -1.012517 4.7147837 26112
0.77692592 -1.011765 4.7237477 26112
0.74228162 -0.98743308 4.7038612 26112
0.76233804 -0.98743939 4.7154193 26112
0.77694058 -0.98634267 4.7238369 26112
0.74250972 -0.96272731 4.7040715 26112
0.76135838 -0.96209502 4.7149348 26112
0.77695417 -0.96287507 4.7239194 26112
0.74252367 -0.93741006 4.7041602 26112
0.76186919 -0.93767768 4.7153077 26112
0.7769677 -0.93940669 4.7240014 25088
0.74253225 -0.9218297 4.7042146 214787
0.79329085 -1.4277881 4.731854 485639
0.81447107 -1.4280629 4.7440577 1142033
0.79152012 -1.4122174 4.7308836 26112
0.8133778 -1.4123329 4.7434783 26112
0.79212898 -1.3872205 4.7313137 26112
0.81268728 -1.3881556 4.7431569 26112
0.79043883 -1.3617692 4.7304206 26112
0.81186396 -1.3627595 4.7427635 26112
0.78932458 -1.3372513 4.729857 26112
0.81133395 -1.3376437 4.7425375 26112
0.79002535 -1.3125713 4.7303395 26112
0.81148601 -1.3125161 4.7427049 26112
0.78976005 -1.2875172 4.7302656 26112
0.81163675 -1.2873869 4.7428727 26112
0.78949535 -1.2624643 4.7301927 26112
0.81110728 -1.2622746 4.7426467 26112
0.79019612 -1.2377746 4.7306752 26112
0.81181222 -1.2375203 4.7431316 26112
0.78941017 -1.2123462 4.7303038 26112
0.81168193 -1.2127876 4.7431355 26112
0.79009908 -1.1872598 4.7307801 26112
0.81115234 -1.1876773 4.7429109 26112
0.78996897 -1.1625913 4.7307839 26112
0.81198502 -1.162516 4.7434707 26112
0.78944182 -1.1375489 4.7305593 26112
0.81145495 -1.1374059 4.7432451 26112
0.79026985 -1.1124473 4.7311163 26112
0.81132525 -1.1126735 4.7432485 26112
0.78974217 -1.0874048 4.7308922 26112
0.81203014 -1.0879002 4.7437344 26112
0.78961259 -1.0627367 4.730895 26112
0.8112402 -1.0624133 4.74336 26112
0.79030138 -1.037632 4.7313728 26112
0.81165159 -1.0376509 4.7436748 26112
0.7895155 -1.0122154 4.7310004 26112
0.81206292 -1.0128841 4.7439919 26112
0.79021657 -0.9874962 4.7314839 26112
0.81127328 -0.98740155 4.7436175 26112
0.78995097 -0.96244103 4.7314095 26112
0.81197846 -0.96261382 4.7441034 26112
0.78906089 -0.93997568 4.730969 25088
0.81124949 -0.94302207 4.7437449 25600
0.83953446 -1.4281305 4.7585001 419846
0.8574416 -1.4284042 4.7688179 945166
0.83752638 -1.4127866 4.7573924 26112
0.85745078 -1.4126155 4.7688732 26112
0.82453918 -1.3794798 4.7500138 26112
0.83767951 -1.3875834 4.7575603 26112
0.85720259 -1.3874668 4.7688103 26112
0.82454997 -1.3617868 4.7500768 26112
0.83783191 -1.3623779 4.7577286 26112
0.85774726 -1.3627645 4.7692032 26112
0.82456464 -1.3381953 4.7501602 26112
0.83729959 -1.3371836 4.7575021 26112
0.85749859 -1.3376142 4.7691402 26112
