# .PCD v0.7 - Point Cloud Data file format
VERSION 0.7
FIELDS x y z rgb
SIZE 4 4 4 4
TYPE F F F U
COUNT 1 1 1 1
WIDTH 958
HEIGHT 1
VIEWPOINT 0 0 0 1 0 0 0
POINTS 958
DATA ascii
-1.065052 -0.28837904 4.2704515 657930
0.98866493 -0.28828862 4.2691121 657930
1.0104369 -0.28743836 4.2565207 657930
-1.1004831 -0.26235512 4.2501173 657930
-1.0866603 -0.26284674 4.258081 657930
-1.0652579 -0.26386696 4.2704105 657930
0.98868126 -0.26353192 4.2691827 657930
1.0104535 -0.26275465 4.2565904 657930
-1.1005006 -0.23770811 4.2501855 657930
-1.0866784 -0.2381535 4.2581496 657930
-1.0666344 -0.23879942 4.2696967 657930
0.98869711 -0.23877443 4.2692509 657930
1.0104698 -0.23807009 4.2566586 657930
-1.1005183 -0.2130603 4.2502537 657930
-1.0866954 -0.21345949 4.2582178 657930
-1.06648 -0.21365005 4.269866 657930
0.98840761 -0.21346956 4.2694988 657930
1.0104859 -0.21338484 4.2567277 657930
-1.100536 -0.18841173 4.2503219 657930
-1.0867131 -0.18876477 4.258286 657930
-1.0666701 -0.18750744 4.2698388 657930
0.98873055 -0.18748745 4.2693944 657930
1.0105022 -0.18869871 4.2567968 657930
-1.1005536 -0.16376235 4.2503896 657930
-1.0863398 -0.1633596 4.2585816 657930
-1.0668597 -0.16136557 4.2698131 657930
0.98905319 -0.16150746 4.2692904 657930
1.0102148 -0.16346481 4.2570429 657930
-1.1005725 -0.13735139 4.250463 657930
-1.087128 -0.13699381 4.2582116 657930
-1.0667056 -0.13621315 4.2699819 657930
0.98876375 -0.13619904 4.2695389 657930
1.010824 -0.13709766 4.2567744 657930
-1.1005914 -0.11093958 4.2505364 657930
-1.0867679 -0.11114747 4.2585015 657930
-1.0667228 -0.11144892 4.270051 657930
0.99008656 -0.11166476 4.2688522 657930
1.0105543 -0.11110865 4.2570143 657930
-1.1006091 -0.086287722 4.2506042 657930
-1.0867854 -0.0864494 4.2585692 657930
-1.0667399 -0.086683869 4.2701192 657930
0.99035692 -0.086656585 4.268775 657930
1.0105703 -0.086419225 4.2570834 657930
-1.1006267 -0.061635066 4.2506723 657930
-1.0868027 -0.061750557 4.2586379 657930
-1.0667571 -0.061918046 4.2701893 657930
0.99037308 -0.061898559 4.2688446 657930
1.0110729 -0.061379712 4.2568727 657930
-1.1006444 -0.036981616 4.2507405 657930
-1.0868204 -0.037050914 4.2587061 657930
-1.0667744 -0.037151411 4.270257 657930
0.99038905 -0.037139725 4.2689137 657930
1.0121521 -0.037030194 4.2563243 657930
-1.100662 -0.012327382 4.2508087 657930
-1.0868376 -0.012350484 4.2587752 657930
-1.0667914 -0.012383983 4.2703266 657930
0.99040514 -0.012380086 4.2689819 657930
1.0121683 -0.012343578 4.2563939 657930
-1.1006796 0.012327643 4.2508769 657930
-1.0868552 0.012350745 4.2588434 657930
-1.0668087 0.01238425 4.2703948 657930
0.99042147 0.012380353 4.2690525 657930
1.0121845 0.012343843 4.2564621 657930
-1.1006974 0.036983464 4.2509451 657930
-1.0868727 0.037052773 4.2589126 657930
-1.066826 0.037153274 4.2704635 657930
0.99043739 0.037141599 4.2691207 657930
1.0122011 0.037032064 4.2565312 657930
-1.100715 0.061640076 4.2510138 657930
-1.0868901 0.061755598 4.2589798 657930
-1.066843 0.061923109 4.2705312 657930
0.9904536 0.061903648 4.2691908 657930
1.0122174 0.061721083 4.2565999 657930
-1.1007327 0.086297467 4.2510815 657930
-1.0869076 0.086459212 4.2590494 657930
-1.0668602 0.086693712 4.2706017 657930
0.99046934 0.086666495 4.2692604 657930
1.0122339 0.086410902 4.256669 657930
-1.0522686 -0.85917586 4.2760019 657930
-1.0367148 -0.85875642 4.2849665 921102
-1.0179765 -0.8595866 4.2957611 921102
0.94122505 -0.85938215 4.2947392 855309
0.96165419 -0.859007 4.2829227 986895
-1.052283 -0.83792943 4.2760615 657930
-1.0367295 -0.83746541 4.2850251 657930
-1.0179906 -0.83824205 4.2958207 657930
0.94123828 -0.83804268 4.2947998 657930
0.96170604 -0.83750582 4.2829614 657930
-1.0523001 -0.81314129 4.2761307 657930
-1.0368283 -0.81240642 4.285048 657930
-1.0180072 -0.81333935 4.2958903 657930
0.94125366 -0.81314605 4.2948699 657930
0.96174943 -0.81245691 4.2830153 657930
-1.052317 -0.78835231 4.2761998 657930
-1.0367632 -0.78734118 4.2851653 657930
-1.0180236 -0.78843588 4.2959599 657930
0.94126904 -0.7882486 4.2949395 657930
0.96173757 -0.78740561 4.283103 657930
-1.0523341 -0.76356256 4.276268 657930
-1.0369166 -0.76228333 4.2851567 657930
-1.0180402 -0.76353139 4.2960296 657930
0.94128448 -0.76335025 4.2950106 657930
0.96183604 -0.76235729 4.2831254 657930
0.97587049 -0.75802648 4.2750201 657930
-1.0523511 -0.73877192 4.2763376 657930
-1.0369883 -0.73700029 4.2851954 657930
-1.0180566 -0.73862654 4.2960997 657930
0.94129968 -0.73845118 4.2950807 657930
0.96190703 -0.73708653 4.283164 657930
0.97588295 -0.73855388 4.275075 657930
-1.052368 -0.71398062 4.2764063 657930
-1.036814 -0.71192724 4.2853756 657930
-1.0180732 -0.71372044 4.2961693 657930
0.94131523 -0.71355122 4.2951508 657930
0.9617852 -0.71202785 4.2833152 657930
0.97589886 -0.71376991 4.2751451 657930
-1.0522823 -0.6882534 4.2765379 657930
-1.0368307 -0.6870833 4.2854452 657930
-1.017928 -0.6883375 4.2963328 657930
0.94133061 -0.68865049 4.2952213 657930
0.96199369 -0.68698359 4.2832737 657930
0.97591484 -0.68898517 4.2752142 657930
-1.0525073 -0.6617887 4.2764926 657930
-1.0368477 -0.66223818 4.2855139 657930
-1.0181069 -0.66301596 4.2963114 657930
0.94117081 -0.66336894 4.2953944 657930
0.96181673 -0.66192001 4.2834558 657930
0.97593176 -0.66242915 4.2752891 657930
-1.0524216 -0.6360597 4.2766237 657930
-1.0368646 -0.63739216 4.285584 657930
-1.0181234 -0.6381076 4.2963805 657930
0.94136178 -0.63813442 4.2953649 657930
0.96183258 -0.63708621 4.2835255 657930
0.97594881 -0.63587224 4.275363 657930
-1.0524385 -0.61126506 4.2766929 657930
-1.0368811 -0.61254567 4.2856536 657930
-1.01814 -0.61319834 4.2964506 657930
0.94137734 -0.61323124 4.2954335 657930
0.9618482 -0.61225146 4.2835946 657930
0.97596461 -0.61108488 4.2754331 657930
-1.0524554 -0.58646953 4.2767615 657930
-1.0368979 -0.5876984 4.2857227 657930
-1.0181028 -0.58783239 4.2965527 657930
0.94130504 -0.58795846 4.2955565 657930
0.96186405 -0.58741617 4.2836652 657930
0.97598058 -0.58629686 4.2755022 657930
-1.0524725 -0.56167322 4.2768312 657930
-1.0369148 -0.56285006 4.2857924 657930
-1.0181735 -0.56248772 4.2965927 657930
0.94140851 -0.56271052 4.2955761 657930
0.96187955 -0.56257981 4.2837348 657930
0.97599643 -0.56150794 4.2755723 657930
-1.0524895 -0.53687614 4.2769003 657930
-1.0369318 -0.538001 4.2858615 657930
-1.0182445 -0.53714269 4.2966323 657930
0.94142389 -0.53780484 4.2956462 657930
0.96189517 -0.53774291 4.2838039 657930
0.97601235 -0.53671819 4.2756414 657930
-1.0525066 -0.51207823 4.276969 657930
-1.0369483 -0.51315129 4.2859311 657930
-1.0182072 -0.51177406 4.2967348 657930
0.94143951 -0.51254249 4.2957172 657930
0.96191102 -0.51290506 4.2838745 657930
0.97602826 -0.51192766 4.2757111 657930
-1.0525235 -0.48727956 4.2770376 657930
-1.0369653 -0.48830059 4.2860007 657930
-1.0182238 -0.48686075 4.296804 657930
0.94145507 -0.4872793 4.2957892 657930
0.96192658 -0.48806641 4.2839451 657930
0.97604412 -0.48713633 4.2757807 657930
-1.0525405 -0.4624801 4.2771072 657930
-1.0369818 -0.46344918 4.2860689 657930
-1.0184025 -0.46153799 4.2967815 657930
0.94155854 -0.46202978 4.2958097 657930
0.96194237 -0.46322685 4.2840147 657930
0.97605997 -0.4623442 4.2758503 657930
-1.0525576 -0.43767977 4.2771759 657930
-1.0368073 -0.43835875 4.2862496 657930
-1.0182573 -0.43614241 4.296946 657930
0.94166213 -0.43642443 4.2958317 657930
0.96195805 -0.43838662 4.2840843 657930
0.97607595 -0.43755123 4.2759204 657930
-1.0525745 -0.41287866 4.2772455 657930
-1.0370156 -0.41329935 4.2862101 657930
-1.0182739 -0.41122675 4.2970157 657930
0.94150227 -0.41112983 4.2960038 657930
0.96197367 -0.41354561 4.2841539 657930
0.97609174 -0.41275749 4.27599 657930
-1.0525916 -0.38807678 4.2773142 657930
-1.036896 -0.38821107 4.2863584 657930
-1.0182903 -0.38631013 4.2970858 657930
0.94151753 -0.3862192 4.2960739 657930
0.9617964 -0.38846448 4.2843361 657930
0.97610766 -0.38796291 4.2760592 657930
-1.0526085 -0.3632741 4.2773833 657930
-1.0369679 -0.36291671 4.2863975 657930
-1.0183069 -0.36139274 4.2971554 657930
0.94153309 -0.36130774 4.2961445 657930
0.96186763 -0.36318195 4.2843757 657930
0.97612351 -0.36316752 4.2761292 657930
-1.0526254 -0.33847061 4.2774529 657930
-1.0370396 -0.33762231 4.2864366 657930
-1.0183234 -0.33647451 4.297225 657930
0.94154835 -0.33639547 4.2962151 657930
0.96193898 -0.33789924 4.2844148 657930
0.97613943 -0.33837137 4.2761989 657930
-1.0526425 -0.31366631 4.2775216 657930
-1.0371116 -0.31232753 4.2864752 657930
-1.0191227 -0.31241342 4.2968411 657930
0.94156396 -0.31148237 4.2962847 657930
0.96201003 -0.31261617 4.2844548 657930
0.9761554 -0.3135744 4.2762685 657930
-1.0526596 -0.28886119 4.2775912 657930
-1.0371832 -0.28703249 4.2865148 657930
-1.0199233 -0.28657556 4.2964616 657930
0.94263244 -0.2871215 4.2957444 657930
0.96208113 -0.28733286 4.284493 657930
0.97617131 -0.28877661 4.2763381 657930
-1.0529872 -0.26333591 4.277483 657930
-1.0374405 -0.26153538 4.2864466 657930
-1.01994 -0.26166016 4.2965312 657930
0.9431749 -0.26159808 4.2955108 657930
0.96228611 -0.26184186 4.2844553 657930
0.97618717 -0.26397797 4.2764077 657930
-1.0541108 -0.23797029 4.2769165 657930
-1.0371352 -0.23619865 4.2867041 657930
-1.0199564 -0.23674402 4.2966008 657930
0.94319057 -0.23668788 4.2955818 657930
0.96227831 -0.2363283 4.2845407 657930
0.97620422 -0.23740715 4.2764826 657930
-1.054405 -0.21149297 4.2768307 657930
-1.0371522 -0.2113391 4.2867737 657930
-1.0199729 -0.21182702 4.2966704 657930
0.94320583 -0.21177682 4.2956519 657930
0.96210134 -0.21123803 4.2847238 657930
0.97622126 -0.21083541 4.276557 657930
-1.0542812 -0.18604977 4.2769828 657930
-1.0371689 -0.18647864 4.2868419 657930
-1.0199896 -0.18690921 4.2967401 657930
0.94322127 -0.18686496 4.295722 657930
0.96211755 -0.18638949 4.2847924 657930
0.97623712 -0.18603425 4.2766266 657930
-1.0542983 -0.16124575 4.2770519 657930
-1.0371855 -0.16161747 4.2869115 657930
-1.0200061 -0.16199063 4.2968102 657930
0.94323677 -0.16195226 4.2957931 657930
0.96213293 -0.16154018 4.284863 657930
0.97625297 -0.16123232 4.2766962 657930
-1.0543153 -0.13644089 4.2771211 657930
-1.0372026 -0.13675544 4.2869811 657930
-1.0200225 -0.13707121 4.2968793 657930
0.94325221 -0.13703877 4.2958632 657930
0.96214867 -0.1366901 4.2849336 657930
0.97626889 -0.13642956 4.2767653 657930
-1.0543324 -0.11163525 4.2771902 657930
-1.0372193 -0.1118926 4.2870507 657930
-1.0200392 -0.11215097 4.2969494 657930
0.9432677 -0.11212444 4.2959337 657930
0.9621641 -0.11183916 4.2850022 657930
0.97772956 -0.11078684 4.2760024 657930
-1.0543493 -0.086828813 4.2772589 657930
-1.0372361 -0.087028995 4.2871194 657930
-1.0200555 -0.087229945 4.2970185 657930
0.94328308 -0.087209351 4.2960038 657930
0.96218002 -0.086987458 4.2850733 657930
0.9778654 -0.08680328 4.2760005 657930
-1.0543664 -0.06202158 4.277328 657930
-1.0372529 -0.062164567 4.28719 657930
-1.0200723 -0.062308107 4.2970891 657930
0.9432987 -0.062293399 4.2960744 657930
0.96219593 -0.062134881 4.2851434 657930
0.97788131 -0.062003333 4.2760706 657930
-1.0543833 -0.037213534 4.2773972 657930
-1.0372695 -0.037299328 4.2872586 657930
-1.0200887 -0.037385456 4.2971582 657930
0.94331396 -0.037376639 4.296145 657930
0.96221149 -0.037281536 4.2852135 657930
0.97789717 -0.037202597 4.2761397 657930
-1.0544004 -0.012404688 4.2774668 657930
-1.0372864 -0.012433289 4.2873282 657930
-1.0201052 -0.012461998 4.2972283 657930
0.94332939 -0.012459061 4.2962146 657930
0.96222705 -0.012427359 4.2852826 657930
0.97791308 -0.012401044 4.2762094 657930
-1.0544174 0.012404956 4.2775354 657930
-1.0373031 0.012433553 4.2873974 657930
-1.0201218 0.012462267 4.2972975 657930
0.94334477 0.012459328 4.2962852 657930
0.96224296 0.012427626 4.2853532 657930
0.977929 0.012401311 4.276279 657930
-1.0544344 0.0372154 4.2776046 657930
-1.03732 0.037301201 4.287467 657930
-1.0201384 0.037387341 4.2973676 657930
0.94336027 0.037378531 4.2963552 657930
0.9622584 0.037283424 4.2854223 657930
0.97794491 0.037204474 4.2763486 657930
-1.0544515 0.062026642 4.2776732 657930
-1.0373367 0.062169649 4.2875357 657930
-1.0201547 0.062313221 4.2974372 657930
0.94337559 0.062298547 4.2964253 657930
0.96227413 0.062140018 4.2854924 657930
0.97796071 0.06200844 4.2764177 657930
-1.0544685 0.086838685 4.2777429 657930
-1.0373538 0.087038897 4.2876053 657930
-1.0201715 0.087239921 4.2975063 657930
0.94339114 0.087219372 4.296495 657930
0.96228987 0.086997434 4.285563 657930
0.97797668 0.086813219 4.2764869 657930
-1.0101399 -0.86048967 4.3002734 1710618
0.89514941 -0.85844946 4.3213959 921102
0.91268986 -0.85911316 4.3112464 855309
0.92857337 -0.85847038 4.3020611 986895
-1.010154 -0.83912271 4.3003335 657930
0.89516199 -0.83697754 4.3214564 657930
0.91270298 -0.83769178 4.3113074 657930
0.9285863 -0.8370946 4.3021212 657930
-1.0101705 -0.81419379 4.3004031 657930
0.89517671 -0.81192642 4.3215275 657930
0.91271794 -0.81269932 4.3113785 657930
0.92860156 -0.81215549 4.3021917 657930
-1.010188 -0.78748339 4.300478 657930
0.89519155 -0.78687441 4.3215985 657930
0.91273272 -0.7877062 4.3114495 657930
0.92876112 -0.78666055 4.3021808 657930
-1.0102056 -0.76077217 4.3005533 657930
0.89440662 -0.7623499 4.3221312 657930
0.91178596 -0.76240569 4.312078 657930
0.92863262 -0.76108748 4.3023357 657930
-1.0102221 -0.73584074 4.3006234 657930
0.89346278 -0.73658347 4.3227587 657930
0.91116935 -0.73787487 4.3125124 657930
0.92864811 -0.73614591 4.3024068 657930
-1.0102385 -0.71090847 4.300693 657930
0.893637 -0.71216381 4.3227348 657930
0.91118431 -0.712874 4.3125834 657930
0.92866307 -0.71120346 4.3024778 657930
-1.0102549 -0.68597549 4.3007627 657930
0.89365166 -0.68710321 4.3228073 657930
0.91119921 -0.68787211 4.3126535 657930
0.92867833 -0.68626016 4.3025475 657930
-1.0102713 -0.66104162 4.3008323 657930
0.89366633 -0.6620416 4.3228784 657930
0.91121405 -0.66286939 4.3127241 657930
0.92869347 -0.6613161 4.3026175 657930
-1.0102876 -0.63610697 4.3009024 657930
0.89368105 -0.63697934 4.3229489 657930
0.91122907 -0.63786602 4.3127947 657930
0.92870873 -0.6363712 4.3026886 657930
-1.0103041 -0.6111716 4.3009725 657930
0.89369547 -0.61251289 4.323019 657930
0.91124421 -0.61286163 4.3128657 657930
0.92872393 -0.61142552 4.3027592 657930
-1.0103205 -0.58623534 4.3010421 657930
0.89370972 -0.58804566 4.3230886 657930
0.91125917 -0.58785647 4.3129363 657930
0.92873925 -0.58647889 4.3028297 657930
-1.0103369 -0.56129825 4.3011122 657930
0.89472342 -0.56477112 4.3225756 657930
0.91127396 -0.56285065 4.3130078 657930
0.92875433 -0.5615316 4.3029003 657930
-1.0103532 -0.53636032 4.3011818 657930
0.89533859 -0.53899395 4.3223014 657930
0.91128904 -0.53784382 4.3130789 657930
0.92876959 -0.53658342 4.3029704 657930
-1.0103698 -0.51142168 4.3012519 657930
0.89535332 -0.51393294 4.3223729 657930
0.91130406 -0.51283634 4.3131499 657930
0.92878485 -0.51163435 4.3030415 657930
-1.0103861 -0.4864822 4.301322 657930
0.8953681 -0.4888711 4.322444 657930
0.91131872 -0.48782799 4.3132205 657930
0.92880005 -0.48668456 4.3031116 657930
-1.0104026 -0.46154186 4.3013916 657930
0.89538276 -0.46380848 4.322515 657930
0.91133386 -0.46281871 4.313292 657930
0.92881531 -0.461734 4.3031821 657930
-1.0104189 -0.43660071 4.3014612 657930
0.8953976 -0.43874496 4.3225861 657930
0.911349 -0.43780878 4.3133621 657930
0.92883056 -0.4367826 4.3032527 657930
-1.0104353 -0.41165879 4.3015313 657930
0.89541233 -0.41368055 4.3226576 657930
0.91136402 -0.41279784 4.3134341 657930
0.92884588 -0.41183031 4.3033228 657930
-1.0104518 -0.3867161 4.3016009 657930
0.89542711 -0.38861543 4.3227286 657930
0.91137892 -0.38778615 4.3135037 657930
0.92886096 -0.38687721 4.3033934 657930
-1.0104682 -0.36177254 4.301671 657930
0.89544171 -0.36354944 4.3227992 657930
0.9113937 -0.3627736 4.3135748 657930
0.92887634 -0.36192334 4.3034644 657930
-1.0104846 -0.33682814 4.3017402 657930
0.89545649 -0.33848265 4.3228707 657930
0.9114086 -0.3377603 4.3136454 657930
0.92889148 -0.3369686 4.303535 657930
-1.0116434 -0.3098923 4.3011584 657930
0.89547122 -0.31341499 4.3229423 657930
0.9114238 -0.31274611 4.3137164 657930
0.92890656 -0.31201309 4.3036051 657930
-1.0120865 -0.28687668 4.3009763 657930
0.89548588 -0.28834656 4.3230138 657930
0.91143876 -0.2877312 4.3137875 657930
0.93014079 -0.28632474 4.3029728 657930
-1.012103 -0.26193517 4.3010459 657930
0.89550066 -0.26327729 4.3230848 657930
0.91145372 -0.2627154 4.3138585 657930
0.93052113 -0.2620438 4.3028302 657930
-1.0121194 -0.23699279 4.301116 657930
0.89551544 -0.23820715 4.3231554 657930
0.91146863 -0.23769876 4.3139296 657930
0.93053633 -0.23709114 4.3029008 657930
-1.0121359 -0.21204965 4.3011856 657930
0.89553016 -0.21313623 4.3232265 657930
0.91148359 -0.21268131 4.3139992 657930
0.93055153 -0.21213762 4.3029714 657930
-1.0121521 -0.18710563 4.3012562 657930
0.89554495 -0.18806447 4.323298 657930
0.91149861 -0.18766311 4.3140707 657930
0.93056691 -0.18718334 4.3030415 657930
-1.0121686 -0.16216086 4.3013258 657930
0.89555973 -0.1629919 4.323369 657930
0.91151363 -0.16264401 4.3141413 657930
0.93058211 -0.16222821 4.3031125 657930
-1.012185 -0.13721524 4.3013954 657930
0.89557445 -0.13791849 4.3234401 657930
0.91152853 -0.1376241 4.3142123 657930
0.93059725 -0.13727228 4.3031831 657930
-1.0122014 -0.11226884 4.301465 657930
0.89558917 -0.11284425 4.3235116 657930
0.91154349 -0.11260341 4.3142834 657930
0.93061244 -0.11231551 4.3032532 657930
-1.0122181 -0.087321617 4.3015351 657930
0.89560384 -0.087769188 4.3235826 657930
0.91155845 -0.087581873 4.3143544 657930
0.93062788 -0.087357938 4.3033237 657930
-1.0122343 -0.062373586 4.3016047 657930
0.89561874 -0.062693305 4.3236547 657930
0.91157347 -0.0625595 4.3144269 657930
0.93064326 -0.062399544 4.3033948 657930
-1.0122508 -0.037424743 4.3016748 657930
0.89563352 -0.037616588 4.3237252 657930
0.91158861 -0.03753629 4.314497 657930
0.9306584 -0.037440326 4.3034654 657930
-1.0122674 -0.012475095 4.301744 657930
0.8956483 -0.012539047 4.3237972 657930
0.91160357 -0.012512282 4.3145666 657930
0.93067366 -0.01248029 4.3035359 657930
-1.0122837 0.012475364 4.3018146 657930
0.89566308 0.012539321 4.3238678 657930
0.91161853 0.012512549 4.3146372 657930
0.93068874 0.012480562 4.303606 657930
-1.0123001 0.037426632 4.3018842 657930
0.89567763 0.037618514 4.3239388 657930
0.91163331 0.037538212 4.3147082 657930
0.93070412 0.03744223 4.3036761 657930
-1.0123166 0.062378716 4.3019543 657930
0.89569241 0.062698528 4.3240099 657930
0.91164833 0.062564686 4.3147788 657930
0.93071949 0.062404722 4.3037467 657930
-1.0123329 0.087331608 4.3020239 657930
0.89634573 0.085621573 4.3237042 657930
0.91166317 0.087591983 4.3148499 657930
0.93073457 0.087368011 4.3038173 657930
0.84849787 -0.85930669 4.3483796 657930
0.86303151 -0.85899258 4.3399734 592905
0.88233727 -0.85902536 4.328805 789516
0.84850991 -0.83770084 4.3484416 657930
0.86304367 -0.83742857 4.3400354 657930
0.88234967 -0.83751678 4.3288674 657930
0.84852391 -0.81249321 4.3485131 657930
0.86302829 -0.81249326 4.3401232 657930
0.88236439 -0.81242257 4.3289385 657930
0.84853798 -0.78728473 4.3485856 657930
0.86307198 -0.78755891 4.3401771 657930
0.8823787 -0.78732741 4.3290091 657930
0.84855205 -0.76207536 4.3486576 657930
0.86311537 -0.76262408 4.3402314 657930
0.8823933 -0.76223165 4.3290811 657930
0.84856606 -0.73686522 4.3487296 657930
0.86310005 -0.73768628 4.3403192 657930
0.88240802 -0.73713499 4.3291521 657930
0.84858018 -0.71165425 4.3488011 657930
0.86320204 -0.71275288 4.3403392 657930
0.88242245 -0.71203756 4.3292236 657930
0.84859425 -0.68644249 4.3488736 657930
0.86312848 -0.68781078 4.3404622 657930
0.88243711 -0.68693912 4.3292947 657930
0.84860831 -0.66122973 4.3489456 657930
0.8632893 -0.66287935 4.3404479 657930
0.88245159 -0.66184008 4.3293662 657930
0.84862232 -0.63601631 4.3490171 657930
0.86336225 -0.63816833 4.3404837 657930
0.88246602 -0.63674015 4.3294382 657930
0.84863544 -0.61260301 4.3490844 657930
0.8631708 -0.61321652 4.3406744 657930
0.88248062 -0.6116392 4.3295088 657930
0.84864849 -0.58918899 4.3491511 657930
0.86318505 -0.58805037 4.3407464 657930
0.88249522 -0.58653772 4.3295803 657930
0.8486625 -0.56397313 4.3492236 657930
0.86319953 -0.56288326 4.3408175 657930
0.88372475 -0.56080151 4.3289504 657930
0.84867656 -0.53875643 4.3492951 657930
0.8632136 -0.53771514 4.3408895 657930
0.88412744 -0.53621709 4.3287959 657930
0.84869051 -0.51353884 4.3493676 657930
0.86322773 -0.51254624 4.3409605 657930
0.88395333 -0.51144731 4.3289757 657930
0.84870464 -0.4883205 4.3494391 657930
0.86324215 -0.48737669 4.3410335 657930
0.88415629 -0.48673543 4.3289371 657930
0.84871864 -0.46310124 4.3495111 657930
0.86325645 -0.46220618 4.3411045 657930
0.88407624 -0.4619782 4.329062 657930
0.84873277 -0.43788117 4.3495831 657930
0.86327076 -0.43703482 4.3411765 657930
0.88418496 -0.4372507 4.3290777 657930
0.84874684 -0.4126603 4.3496552 657930
0.86328495 -0.41186267 4.3412485 657930
0.88419926 -0.41250727 4.3291478 657930
0.8487609 -0.38743857 4.3497276 657930
0.86329937 -0.38668972 4.3413191 657930
0.88421386 -0.38776305 4.3292179 657930
0.84877491 -0.36221603 4.3497992 657930
0.86331356 -0.36151591 4.3413916 657930
0.88432252 -0.36303481 4.3292341 657930
0.84878904 -0.33699265 4.3498716 657930
0.86332768 -0.33634123 4.3414636 657930
0.88443094 -0.33866525 4.3292484 657930
0.84880304 -0.31176838 4.3499436 657930
0.86313671 -0.31137016 4.3416538 657930
0.88425666 -0.31388524 4.3294291 657930
0.8488121 -0.2955524 4.3499899 657930
0.86320931 -0.28664804 4.3416905 657930
0.8842712 -0.28877923 4.3294997 657930
0.86325002 -0.26214722 4.3417439 657930
0.88428581 -0.26367232 4.3295703 657930
0.86350304 -0.23789379 4.3416748 657930
0.88430035 -0.23856463 4.3296423 657930
0.86375588 -0.21364212 4.3416061 657930
0.88431495 -0.21345606 4.3297138 657930
0.86341125 -0.18887296 4.3418837 657930
0.8843295 -0.18834667 4.3297849 657930
0.86342579 -0.16369261 4.3419557 657930
0.88434404 -0.16323645 4.3298564 657930
0.86343992 -0.1385114 4.3420272 657930
0.88435882 -0.13812543 4.3299274 657930
0.86345422 -0.1133294 4.3420992 657930
0.88437331 -0.11301357 4.329999 657930
0.86346865 -0.088146523 4.3421702 657930
0.88438773 -0.087900892 4.330071 657930
0.86348283 -0.06296283 4.3422422 657930
0.88440257 -0.062787391 4.3301415 657930
0.86349708 -0.037778325 4.3423162 657930
0.88441724 -0.037673045 4.3302135 657930
0.8635115 -0.012592959 4.3423872 657930
0.8844316 -0.012557864 4.3302851 657930
0.86352557 0.012593233 4.3424592 657930
0.88444638 0.012558139 4.3303566 657930
0.86354005 0.037780259 4.3425307 657930
0.88446075 0.037674967 4.3304281 657930
0.8635543 0.06296812 4.3426018 657930
0.88447541 0.062792614 4.3304982 657930
0.86356837 0.088156812 4.3426733 657930
0.88547671 0.088450886 4.3300014 657930
0.81271005 -0.85926002 4.369082 592649
0.83551985 -0.8592422 4.3558874 593161
0.81292588 -0.83781958 4.3690257 657930
0.83553171 -0.83759922 4.3559489 657930
0.81273496 -0.81274104 4.369216 657930
0.83561301 -0.81260896 4.3559813 657930
0.81274843 -0.78741246 4.3692884 657930
0.83569437 -0.78787667 4.3560128 657930
0.81439751 -0.76191831 4.3684149 657930
0.83577579 -0.7631442 4.3560448 657930
0.81421167 -0.73687738 4.3686028 657930
0.83558637 -0.73813677 4.3562336 657930
0.81430465 -0.71216089 4.3686275 657930
0.8356002 -0.71288228 4.3563066 657930
0.81439739 -0.68744433 4.3686519 657930
0.83561409 -0.68762708 4.3563786 657930
0.81449044 -0.66272783 4.3686771 657930
0.83562791 -0.66237098 4.3564501 657930
0.81458348 -0.63801122 4.368701 657930
0.83564174 -0.63711387 4.356523 657930
0.81467634 -0.61329472 4.3687267 657930
0.83565551 -0.6118561 4.356596 657930
0.81449026 -0.58824623 4.3689141 657930
0.83566964 -0.58659738 4.3566675 657930
0.81450379 -0.56291592 4.3689861 657930
0.83548027 -0.56157833 4.3568559 657930
0.81451732 -0.53758454 4.3690591 657930
0.83556145 -0.53683817 4.3568883 657930
0.81453079 -0.51225227 4.3691316 657930
0.83564091 -0.51235551 4.3569198 657930
0.81454438 -0.48691934 4.3692055 657930
0.83579135 -0.48787963 4.3569112 657930
0.81455803 -0.46158546 4.3692775 657930
0.83587265 -0.46313944 4.3569431 657930
0.81437236 -0.43652689 4.3694644 657930
0.83595413 -0.43839934 4.3569732 657930
0.81442118 -0.41209954 4.3695145 657930
0.83576453 -0.41337258 4.357162 657930
0.8147608 -0.38801271 4.3693933 657930
0.83577836 -0.38810733 4.3572354 657930
0.81480986 -0.3635866 4.3694425 657930
0.8357923 -0.36284119 4.3573079 657930
0.81462395 -0.33852339 4.3696308 657930
0.83580619 -0.33757427 4.3573799 657930
0.81463742 -0.31318459 4.3697023 657930
0.8358202 -0.31230652 4.3574519 657930
0.81465095 -0.28784496 4.3697758 657930
0.83703625 -0.28665844 4.3568306 657930
0.81466466 -0.26250452 4.3698478 657930
0.83747083 -0.2617121 4.3566575 657930
0.81467819 -0.23716319 4.3699212 657930
0.83748472 -0.23644729 4.3567305 657930
0.81469184 -0.21182095 4.3699942 657930
0.83749861 -0.21118164 4.3568029 657930
0.81470537 -0.18647797 4.3700671 657930
0.83705246 -0.1865387 4.3571382 657930
0.81471878 -0.16113417 4.3701401 657930
0.83777452 -0.16293198 4.3567958 657930
0.8143875 -0.13693854 4.3704076 657930
0.83774513 -0.13878836 4.3568897 657930
0.81601584 -0.11404571 4.3695393 657930
0.83755207 -0.11372043 4.3570819 657930
0.81639284 -0.088699304 4.3694015 657930
0.8375659 -0.088450678 4.3571539 657930
0.81640661 -0.063357703 4.3694739 657930
0.83757979 -0.063180096 4.3572259 657930
0.8164202 -0.038015231 4.3695464 657930
0.83759367 -0.037908673 4.3572989 657930
0.81643373 -0.012671934 4.3696208 657930
0.83760786 -0.012636415 4.3573718 657930
0.8164472 0.012672213 4.3696918 657930
0.83762169 0.012636692 4.3574443 657930
0.81646067 0.038017206 4.3697658 657930
0.83763558 0.037910637 4.3575163 657930
0.81647444 0.063363038 4.3698378 657930
0.83764941 0.063185424 4.3575878 657930
0.81648797 0.088709705 4.3699107 657930
0.83766335 0.088461027 4.3576608 657930
0.76667643 -0.85846186 4.3957138 592649
0.78811538 -0.85894585 4.3833103 592649
0.76658654 -0.83733761 4.3958325 657930
0.78812659 -0.83716631 4.3833723 657930
0.76679659 -0.81296968 4.3957891 657930
0.78777426 -0.8121981 4.383657 657930
0.7669065 -0.78822708 4.3958039 657930
0.78806251 -0.78747511 4.3835678 657930
0.76672459 -0.76308507 4.3959889 657930
0.78813523 -0.76251882 4.3836055 657930
0.80294842 -0.76307279 4.3750343 657930
0.76673728 -0.73760062 4.3960629 657930
0.78820807 -0.73756236 4.3836427 657930
0.80296177 -0.7377097 4.3751078 657930
0.7667501 -0.71211529 4.3961358 657930
0.78843474 -0.71283942 4.3835893 657930
0.80297518 -0.71234578 4.3751802 657930
0.76841813 -0.68647951 4.3952532 657930
0.78841329 -0.688106 4.3836818 657930
0.80298853 -0.68698114 4.3752532 657930
0.76817608 -0.66185975 4.3954711 657930
0.78821677 -0.66290808 4.3838744 657930
0.80300188 -0.66161549 4.3753257 657930
0.7685039 -0.63780183 4.3953586 657930
0.78823 -0.6374923 4.3839478 657930
0.80301523 -0.63624907 4.3753991 657930
0.76863873 -0.6132533 4.3953581 657930
0.78824311 -0.61207545 4.3840213 657930
0.80302858 -0.61088181 4.3754721 657930
0.76846772 -0.58818871 4.3955359 657930
0.78804684 -0.58687168 4.3842149 657930
0.80304104 -0.58732575 4.3755393 657930
0.76848066 -0.56270403 4.3956103 657930
0.78802514 -0.56213033 4.384306 657930
0.80305344 -0.56376886 4.375607 657930
0.76849347 -0.53721839 4.3956833 657930
0.78825182 -0.53740507 4.384254 657930
0.80306679 -0.53839922 4.37568 657930
0.76850611 -0.5117318 4.3957572 657930
0.78841615 -0.51267648 4.3842373 657930
0.8030802 -0.51302862 4.3757529 657930
0.76851904 -0.48624435 4.3958306 657930
0.7886731 -0.48818251 4.3841667 657930
0.80309355 -0.48765728 4.3758264 657930
0.76833284 -0.46207875 4.3960156 657930
0.78832012 -0.46318832 4.38445 657930
0.80310708 -0.46228504 4.3758988 657930
0.76872712 -0.43849292 4.3958626 657930
0.78833348 -0.43776566 4.3845239 657930
0.80312049 -0.43691197 4.3759718 657930
0.76855594 -0.4134185 4.3960409 657930
0.78834665 -0.41234225 4.3845968 657930
0.80313385 -0.41153806 4.3760452 657930
0.76856881 -0.38792783 4.3961143 657930
0.78835964 -0.38691789 4.3846688 657930
0.80314726 -0.38616329 4.3761177 657930
0.76858169 -0.36243632 4.3961883 657930
0.78837299 -0.36149269 4.3847432 657930
0.80315965 -0.36260024 4.3761854 657930
0.76859444 -0.33694392 4.3962617 657930
0.78792012 -0.33670342 4.3850832 657930
0.80317205 -0.33903646 4.3762536 657930
0.76860744 -0.31145072 4.3963361 657930
0.78849101 -0.31269062 4.384829 657930
0.80318546 -0.31365928 4.3763266 657930
0.76836532 -0.28680626 4.396554 657930
0.78877652 -0.28842658 4.3847408 657930
0.80319881 -0.28828123 4.376399 657930
0.76888621 -0.26325411 4.3963275 657930
0.78842372 -0.26341614 4.3850255 657930
0.80321217 -0.26290235 4.376472 657930
0.76864421 -0.23860811 4.3965459 657930
0.78843677 -0.23798688 4.3850985 657930
0.80322552 -0.23752265 4.3765454 657930
0.76865703 -0.21311159 4.3966193 657930
0.78844982 -0.21255668 4.3851709 657930
0.80323893 -0.21214208 4.3766179 657930
0.7686699 -0.18761419 4.3966928 657930
0.78846306 -0.18712568 4.3852439 657930
0.80325228 -0.18676066 4.3766909 657930
0.76868284 -0.16211595 4.3967662 657930
0.78847629 -0.16169383 4.3853183 657930
0.80326563 -0.1613784 4.3767638 657930
0.76869553 -0.13661686 4.3968406 657930
0.78783786 -0.13668348 4.385766 657930
0.80229628 -0.1338363 4.3774118 657930
0.76870859 -0.1111169 4.396914 657930
0.78648341 -0.11209545 4.3866282 657930
0.80288136 -0.11152445 4.3771448 657930
0.76872045 -0.087437592 4.3969822 657930
0.78722042 -0.088577412 4.3862762 657930
0.80330306 -0.088853009 4.3769727 657930
0.76873237 -0.063757554 4.3970504 657930
0.78688276 -0.063605316 4.3865519 657930
0.80331647 -0.06346748 4.3770456 657930
0.76934046 -0.039127123 4.3967772 657930
0.78689599 -0.038163818 4.3866248 657930
0.80332983 -0.03808111 4.3771186 657930
0.77041298 -0.012749134 4.3962407 657930
0.78690916 -0.012721463 4.3866987 657930
0.80334336 -0.012693895 4.377192 657930
0.77042609 0.012749418 4.3963151 657930
0.78692245 0.012721745 4.3867722 657930
0.80335671 0.012694175 4.377265 657930
0.77043885 0.03824883 4.3963881 657930
0.78693551 0.038165804 4.3868446 657930
0.80337006 0.038083095 4.3773384 657930
0.77045178 0.06374909 4.3964624 657930
0.78694844 0.063610695 4.3869176 657930
0.80338353 0.063472845 4.3774114 657930
0.77046376 0.087428659 4.3965297 657930
0.78739101 0.088339567 4.3867407 657930
0.80339688 0.08886344 4.3774838 657930
0.7200765 -0.8593291 4.422668 592649
0.73678052 -0.85901755 4.4130058 592905
0.75342125 -0.85922986 4.4033794 592649
0.72008687 -0.83735412 4.4227319 657930
0.73686171 -0.83761597 4.4130273 657930
0.75343221 -0.83735067 4.4034419 657930
0.72009897 -0.81171578 4.4228058 657930
0.73694199 -0.81282097 4.4130597 657930
0.75344473 -0.81182408 4.4035163 657930
0.7199434 -0.78664291 4.422976 657930
0.73702359 -0.78776455 4.4130917 657930
0.75345743 -0.78629684 4.4035897 657930
0.72029829 -0.76292491 4.4228458 657930
0.73682737 -0.76243085 4.4132857 657930
0.75329477 -0.76193762 4.4037619 657930
0.72013366 -0.73845863 4.4230189 657930
0.73663121 -0.73709434 4.4134793 657930
0.75364721 -0.73832315 4.4036322 657930
0.72148544 -0.71342522 4.4223166 657930
0.73663867 -0.71229023 4.4135547 657930
0.75349349 -0.71335685 4.4038005 657930
0.72183305 -0.68702406 4.4221992 657930
0.73686343 -0.6875 4.4135027 657930
0.75516516 -0.68767637 4.4029155 657930
0.72184509 -0.66138631 4.4222741 657930
0.73731065 -0.66298807 4.4133229 657930
0.75517786 -0.66215032 4.4029894 657930
0.72185636 -0.63757902 4.4223433 657930
0.73688745 -0.63815361 4.4136472 657930
0.75519043 -0.63662368 4.4030638 657930
0.72186768 -0.61377102 4.4224124 657930
0.73689973 -0.61256468 4.4137201 657930
0.75501859 -0.6115157 4.4032426 657930
0.72187984 -0.58813077 4.4224863 657930
0.73691231 -0.5869748 4.4137945 657930
0.75521469 -0.58739024 4.4032054 657930
0.72189194 -0.56248969 4.4225607 657930
0.73656976 -0.56187648 4.414072 657930
0.75541127 -0.56326592 4.4031687 657930
0.7219041 -0.53684777 4.4226356 657930
0.73686504 -0.53735197 4.4139791 657930
0.75523937 -0.53815502 4.403348 657930
0.72191626 -0.5112049 4.4227095 657930
0.73738307 -0.51311105 4.4137573 657930
0.75525182 -0.51262403 4.4034219 657930
0.72192764 -0.48739299 4.4227791 657930
0.73695993 -0.48826298 4.4140806 657930
0.7552647 -0.48709223 4.4034958 657930
0.72193891 -0.46358031 4.4228482 657930
0.73697251 -0.46266899 4.4141545 657930
0.75527734 -0.46155959 4.4035692 657930
0.72195107 -0.43793494 4.4229226 657930
0.73698485 -0.43707415 4.4142289 657930
0.75503415 -0.43688199 4.4037886 657930
0.72196311 -0.41228876 4.4229975 657930
0.73678875 -0.4117178 4.414423 657930
0.75555652 -0.41328338 4.4035616 657930
0.72197533 -0.3866418 4.4230719 657930
0.73679119 -0.38716367 4.4145002 657930
0.75531352 -0.38860434 4.4037805 657930
0.72185832 -0.36184537 4.4232183 657930
0.73745579 -0.36320433 4.4141917 657930
0.75532609 -0.36306837 4.4038539 657930
0.72212708 -0.33815783 4.4231381 657930
0.73703259 -0.33834293 4.4145145 657930
0.75533873 -0.33753151 4.4039283 657930
0.72201014 -0.31335983 4.4232845 657930
0.73704499 -0.31274378 4.4145889 657930
0.75535154 -0.31199381 4.4040017 657930
0.72202235 -0.28770947 4.4233594 657930
0.73705733 -0.28714395 4.4146633 657930
0.75536412 -0.28645524 4.4040756 657930
0.72203439 -0.26205829 4.4234338 657930
0.73706979 -0.26154318 4.4147372 657930
0.75512093 -0.26176623 4.4042945 657930
0.72204655 -0.23640624 4.4235082 657930
0.73663676 -0.23692989 4.4150667 657930
0.75564343 -0.23817383 4.4040675 657930
0.72205782 -0.21258564 4.4235768 657930
0.7375282 -0.21326801 4.4146266 657930
0.7554006 -0.21348323 4.4042869 657930
0.7220692 -0.18876433 4.4236465 657930
0.73710525 -0.18839324 4.4149508 657930
0.755413 -0.18794139 4.4043603 657930
0.72208124 -0.16310981 4.4237213 657930
0.73711753 -0.16278908 4.4150243 657930
0.75542581 -0.16239865 4.4044347 657930
0.72209346 -0.13745441 4.4237957 657930
0.73712981 -0.13718416 4.4150977 657930
0.75543839 -0.1368551 4.4045081 657930
0.72210562 -0.1117981 4.4238706 657930
0.73714226 -0.1115783 4.4151726 657930
0.7554509 -0.11131067 4.404582 657930
0.7221179 -0.086140968 4.423945 657930
0.73670936 -0.086951487 4.4155016 657930
0.75546283 -0.087590098 4.4046507 657930
0.72228092 -0.063147731 4.423923 657930
0.7376008 -0.063302301 4.41506 657930
0.75547463 -0.063868761 4.4047194 657930
0.72381508 -0.038481269 4.4231143 657930
0.73717785 -0.038414028 4.4153843 657930
0.75629008 -0.037612233 4.4043307 657930
0.7238273 -0.012827285 4.4231887 657930
0.73719007 -0.012804867 4.4154592 657930
0.7571587 -0.01277137 4.4039078 657930
0.72383958 0.012827572 4.4232631 657930
0.73720264 0.012805155 4.4155331 657930
0.75717145 0.012771655 4.4039817 657930
0.72385174 0.038483296 4.4233384 657930
0.73721516 0.038416043 4.4156079 657930
0.75718409 0.038315542 4.4040551 657930
0.72386312 0.062307235 4.4234076 657930
0.73767173 0.063047715 4.4154215 657930
0.75719678 0.063860267 4.4041309 657930
0.72387445 0.086131923 4.4234762 657930
0.73680311 0.086701557 4.4159989 657930
0.75720859 0.087581143 4.4041982 657930
0.6729002 -0.8609435 4.4499526 594697
0.68812037 -0.85924113 4.4411535 592649
0.70833552 -0.85973042 4.4294586 593417
0.67290592 -0.84804577 4.4499903 657930
0.68791562 -0.83739781 4.4413414 657930
0.70853227 -0.838211 4.4294128 657930
0.68789142 -0.81233954 4.4414349 657930
0.70835739 -0.81296164 4.4295945 657930
0.68815255 -0.78751975 4.4413633 657930
0.70836931 -0.78728324 4.4296689 657930
0.68841404 -0.76270193 4.4412904 657930
0.70838135 -0.76160371 4.4297438 657930
0.68839037 -0.73764378 4.4413838 657930
0.70813441 -0.73679447 4.4299655 657930
0.68774939 -0.71249723 4.4418349 657930
0.70958835 -0.71207368 4.429203 657930
0.68615168 -0.68701893 4.4428401 657930
0.70861799 -0.68794233 4.4298415 657930
0.68645006 -0.66233194 4.4427457 657930
0.70842493 -0.66254681 4.4300332 657930
0.68697393 -0.63792676 4.4425211 657930
0.70843685 -0.63686323 4.4301076 657930
0.6865443 -0.61292607 4.4428487 657930
0.70811272 -0.61175549 4.4303751 657930
0.68655598 -0.58716738 4.4429235 657930
0.70858884 -0.58764654 4.4301767 657930
0.68620801 -0.56190318 4.4432054 657930
0.7086761 -0.5631929 4.4302034 657930
0.68657809 -0.53748614 4.4430685 657930
0.70848286 -0.53778976 4.430397 657930
0.68694913 -0.51307184 4.4429321 657930
0.70849484 -0.51210201 4.4304714 657930
0.68660069 -0.48780403 4.4432135 657930
0.70830196 -0.48669451 4.4306631 657930
0.68661243 -0.46204108 4.4432883 657930
0.70838857 -0.46223626 4.4306917 657930
0.68626434 -0.43676698 4.4435706 657930
0.70886534 -0.43813333 4.4304914 657930
0.68701851 -0.41291717 4.4432101 657930
0.70854104 -0.41301236 4.430759 657930
0.68664551 -0.38842785 4.4435039 657930
0.70855302 -0.38732028 4.4308338 657930
0.68665725 -0.36266157 4.4435782 657930
0.70856488 -0.36162743 4.4309092 657930
0.68666887 -0.33689436 4.4436536 657930
0.70822245 -0.33710787 4.4311848 657930
0.68623942 -0.31186369 4.4439831 657930
0.70892346 -0.31334496 4.4308558 657930
0.68714148 -0.28803933 4.4435358 657930
0.70859897 -0.28821447 4.4311228 657930
0.68670195 -0.26326889 4.4438691 657930
0.70861095 -0.26251823 4.4311972 657930
0.68671364 -0.23749834 4.4439435 657930
0.70862305 -0.23682109 4.431272 657930
0.68672514 -0.2117269 4.4440188 657930
0.70829862 -0.2116826 4.4315395 657930
0.68635201 -0.18721852 4.4443135 657930
0.70899945 -0.18792707 4.43121 657930
0.68864453 -0.16355324 4.4430623 657930
0.70865709 -0.16339612 4.4314857 657930
0.6884498 -0.13805903 4.4432549 657930
0.70866913 -0.13769564 4.4315605 657930
0.68846154 -0.11228989 4.4433312 657930
0.70868099 -0.11199436 4.4316344 657930
0.68847305 -0.086519897 4.4434071 657930
0.70869297 -0.086292185 4.4317102 657930
0.68848401 -0.062589854 4.4434757 657930
0.70902175 -0.06217479 4.4315963 657930
0.68849468 -0.038659029 4.4435453 657930
0.71039397 -0.038548823 4.4308782 657930
0.68850642 -0.012886537 4.4436212 657930
0.71040583 -0.0128498 4.4309525 657930
0.68851805 0.012886827 4.443696 657930
0.71041787 0.012850089 4.4310274 657930
0.68852985 0.038661066 4.4437718 657930
0.71042991 0.038550846 4.4311032 657930
0.68854058 0.062595055 4.4438419 657930
0.71044093 0.062416609 4.4311719 657930
0.68855155 0.086529821 4.4439116 657930
0.7104522 0.086283132 4.431242 657930
0.64060968 -0.85932249 4.468637 592905
0.66101158 -0.85858268 4.4568377 657930
0.64090192 -0.83806503 4.4685359 657930
0.66203988 -0.83681893 4.4563122 657930
