# .PCD v0.7 - Point Cloud Data file format
VERSION 0.7
FIELDS x y z rgb
SIZE 4 4 4 4
TYPE F F F U
COUNT 1 1 1 1
WIDTH 1175
HEIGHT 1
VIEWPOINT 0 0 0 1 0 0 0
POINTS 1175
DATA ascii
0.91356099 0.10802951 1.9840887 9342606
1.2748507 0.10946104 1.9865775 8421504
1.2880193 0.10946107 1.9865781 10197915
1.3127106 0.10946112 1.9865797 10197915
1.3374021 0.10946121 1.9865812 10197915
1.3620936 0.10946131 1.9865822 10197915
1.3876081 0.10946137 1.9865835 10197915
1.4131224 0.10946143 1.9865851 10197915
1.4378141 0.10946153 1.9865861 10197915
1.4625057 0.10946158 1.9865878 10197915
1.4871974 0.10946167 1.9865888 10197915
1.5118889 0.10946174 1.98659 10197915
1.5374038 0.10946181 1.9865918 10197915
1.5629183 0.1094619 1.9865934 10197915
1.5777334 0.10946194 1.9865938 10197915
-1.6011879 0.10936164 2.0150754 10197915
-1.5869964 0.10936167 2.0150762 10197915
-1.5619527 0.10936175 2.0150774 10197915
-1.5369092 0.10936184 2.0150788 10197915
-1.5118655 0.10936189 2.01508 10197915
-1.4868218 0.10936197 2.0150812 10197915
-1.461778 0.10936202 2.0150828 10197915
-1.436734 0.10936211 2.0150838 10197915
-1.4116902 0.10936217 2.0150852 10197915
-1.389151 0.10936224 2.0150864 10197915
-1.0068103 0.10936331 2.0151062 10197915
-0.98760968 0.10936338 2.0151074 10197915
-0.96256524 0.10936344 2.0151083 10197915
-0.93752074 0.10936352 2.0151098 10197915
-0.91247636 0.10936359 2.0151112 10197915
-0.8874318 0.10936367 2.0151124 10197915
-0.86238724 0.10936373 2.0151136 10197915
-0.83734262 0.10936379 2.015115 10197915
-0.81229794 0.10936384 2.0151162 10197915
-0.78725332 0.10936394 2.0151179 10197915
-0.76220864 0.10936402 2.0151191 10197915
-0.7371639 0.10936407 2.01512 10197915
-0.71211922 0.10936415 2.0151217 10197915
-0.68707442 0.10936422 2.0151227 10197915
-0.66202956 0.10936428 2.0151243 10197915
-0.63698477 0.10936436 2.0151255 10197915
-0.61193997 0.10936442 2.0151269 10197915
-0.58689499 0.10936451 2.0151281 10197915
-0.56185001 0.10936458 2.0151293 10197915
-0.53680503 0.10936464 2.0151308 10197915
-0.51176006 0.10936472 2.0151324 10197915
-0.48671496 0.10936478 2.0151334 10197915
-0.47335765 0.10936482 2.0151341 10197915
0.27133009 0.10936691 2.0151725 10000536
0.2880275 0.10936698 2.0151739 10197915
0.31307355 0.10936704 2.0151751 10197915
0.33811969 0.10936712 2.0151763 10197915
0.36316586 0.1093672 2.0151777 10197915
0.38821205 0.10936725 2.0151789 10197915
0.41325825 0.10936735 2.0151808 10197915
0.43830451 0.10936742 2.015182 10197915
0.46251592 0.10936749 2.015183 10197915
0.48672736 0.10936758 2.0151844 10197915
0.51177377 0.10936762 2.0151861 10197915
0.53682011 0.10936772 2.0151873 10197915
0.56186658 0.10936777 2.0151887 10197915
0.58691305 0.10936785 2.0151901 10197915
0.61195952 0.10936794 2.0151916 10197915
0.6370061 0.10936801 2.015193 10197915
0.66205269 0.10936808 2.0151939 10197915
0.68709922 0.10936817 2.0151956 10197915
0.71214586 0.10936823 2.0151973 10197915
0.73719257 0.10936832 2.0151982 10197915
0.76223928 0.1093684 2.0151997 10197915
0.78728598 0.10936844 2.0152011 10197915
0.81233275 0.10936854 2.0152028 10197915
0.83737957 0.10936863 2.015204 10197915
0.8624264 0.10936869 2.0152054 10197915
0.88747323 0.10936878 2.0152068 10197915
0.91252011 0.10936883 2.015208 10197915
0.930053 0.10936889 2.0152092 10066329
1.2965772 0.10936999 2.0152295 9803157
1.3132755 0.10937003 2.0152304 10197915
1.3374882 0.10937011 2.0152316 10197915
1.3617005 0.10937018 2.0152328 10197915
1.3867482 0.10937025 2.0152345 10197915
1.4117957 0.10937034 2.0152357 10197915
1.4368435 0.10937043 2.0152373 10197915
1.4618909 0.10937048 2.0152388 10197915
1.4869386 0.10937058 2.01524 10197915
1.5119865 0.10937066 2.0152414 10197915
1.5370344 0.10937072 2.0152428 10197915
1.5620819 0.10937079 2.015244 10197915
1.5871298 0.10937085 2.0152457 10197915
1.6013236 0.10937091 2.0152464 10197915
-1.6254647 0.10926782 2.0445614 10197915
-1.6119124 0.10926785 2.0445619 10197915
-1.5873497 0.10926794 2.0445635 10197915
-1.5627863 0.10926798 2.0445647 10197915
-1.5373764 0.10926807 2.0445659 10197915
-1.5119662 0.10926814 2.0445673 10197915
-1.4874028 0.10926819 2.0445685 10197915
-1.4628396 0.10926829 2.0445697 10197915
-1.4374293 0.10926836 2.0445709 10197915
-1.4120191 0.10926843 2.0445728 10197915
-1.0266252 0.1092695 2.0445929 10197915
-1.0122256 0.10926955 2.0445938 10197915
-0.98766178 0.10926963 2.044595 10197915
-0.96309787 0.10926966 2.0445962 10197915
-0.93768698 0.10926975 2.0445979 10197915
-0.91227603 0.10926984 2.0445991 10197915
-0.88686496 0.10926989 2.0446 10197915
-0.86230087 0.10926998 2.0446017 10197915
-0.8377369 0.10927003 2.0446031 10197915
-0.81232589 0.10927011 2.0446041 10197915
-0.78691471 0.10927019 2.0446057 10197915
-0.76235062 0.10927025 2.0446072 10197915
-0.73778647 0.10927033 2.0446081 10197915
-0.71237522 0.10927038 2.0446095 10197915
-0.68696392 0.10927047 2.0446112 10197915
-0.66239965 0.10927052 2.0446122 10197915
-0.63783538 0.1092706 2.0446134 10197915
-0.61242402 0.10927068 2.044615 10197915
-0.58701265 0.10927074 2.0446165 10197915
-0.56244826 0.10927081 2.0446172 10197915
-0.53788382 0.10927088 2.0446188 10197915
-0.51247233 0.10927095 2.0446205 10197915
-0.48960188 0.10927103 2.0446212 10197915
0.27275938 0.10927317 2.0446615 9737364
0.28715983 0.10927321 2.0446625 10197915
0.31257242 0.10927329 2.0446637 10197915
0.33798501 0.10927335 2.0446651 10197915
0.36255071 0.10927344 2.0446665 10197915
0.38711625 0.10927351 2.044668 10197915
0.41252896 0.10927358 2.0446694 10197915
0.43794176 0.10927367 2.0446708 10197915
0.46250746 0.10927372 2.0446723 10197915
0.48707327 0.10927381 2.0446737 10197915
0.51248604 0.1092739 2.0446746 10197915
0.53789902 0.10927395 2.0446763 10197915
0.56246483 0.10927404 2.044678 10197915
0.58703065 0.10927411 2.0446792 10197915
0.61244369 0.10927418 2.0446806 10197915
0.63785678 0.10927427 2.044682 10197915
0.66242272 0.10927434 2.0446835 10197915
0.68698871 0.10927441 2.0446849 10197915
0.71240181 0.1092745 2.0446858 10197915
0.73781514 0.10927455 2.0446875 10197915
0.7623812 0.10927463 2.0446889 10197915
0.78694737 0.10927472 2.0446904 10197915
0.81236064 0.10927477 2.0446916 10197915
0.83777392 0.10927487 2.0446932 10197915
0.86234015 0.10927496 2.0446947 10197915
0.88690645 0.10927502 2.0446959 10197915
0.9123199 0.10927509 2.0446975 10197915
0.93688637 0.10927515 2.044699 10132122
1.3180925 0.10927629 2.0447202 9934743
1.3375765 0.10927637 2.0447214 10197915
1.3629906 0.10927644 2.0447228 10197915
1.3875576 0.10927653 2.044724 10197915
1.4121246 0.10927658 2.0447257 10197915
1.4375387 0.10927667 2.0447273 10197915
1.4629531 0.10927675 2.044728 10197915
1.4875202 0.10927679 2.0447295 10197915
1.5120872 0.10927689 2.0447314 10197915
1.5375016 0.10927698 2.0447328 10197915
1.5629158 0.10927703 2.044734 10197915
1.5874828 0.10927713 2.0447354 10197915
1.6120503 0.1092772 2.0447366 10197915
1.6256047 0.10927723 2.0447376 10197915
-1.6375687 0.10917124 2.074924 10197915
-1.6126407 0.10917132 2.0749247 10197915
-1.5877129 0.10917138 2.0749261 10197915
-1.562785 0.10917145 2.074928 10197915
-1.5378571 0.10917152 2.0749288 10197915
-1.5120697 0.1091716 2.0749304 10197915
-1.4871416 0.10917167 2.0749319 10197915
-1.4622136 0.10917174 2.0749328 10197915
-1.4372855 0.1091718 2.0749345 10197915
-1.4226724 0.10917185 2.0749352 10197915
-1.0341343 0.10917294 2.0749559 10197915
-1.0126441 0.10917299 2.0749571 10197915
-0.98771548 0.10917306 2.0749586 10197915
-0.96278673 0.10917316 2.0749593 10197915
-0.93785805 0.10917321 2.0749612 10197915
-0.91206974 0.1091733 2.0749629 10197915
-0.88714105 0.10917335 2.0749636 10197915
-0.86221212 0.10917343 2.074965 10197915
-0.83728343 0.1091735 2.0749664 10197915
-0.81235445 0.10917357 2.0749679 10197915
-0.78742558 0.10917364 2.0749695 10197915
-0.76249665 0.10917369 2.0749705 10197915
-0.73756772 0.10917377 2.0749719 10197915
-0.7126388 0.10917386 2.0749736 10197915
-0.68770975 0.10917391 2.0749743 10197915
-0.66278058 0.109174 2.074976 10197915
-0.63785154 0.10917406 2.0749774 10197915
-0.61292249 0.10917413 2.0749786 10197915
-0.58713371 0.1091742 2.07498 10197915
-0.56220448 0.10917427 2.0749815 10197915
-0.53727531 0.10917436 2.0749824 10197915
-0.51234603 0.10917441 2.0749841 10197915
-0.49343422 0.10917446 2.074985 10197915
0.28712606 0.10917666 2.075027 10132122
0.31205636 0.10917675 2.0750279 10197915
0.33784637 0.10917684 2.0750296 10197915
0.36277679 0.10917688 2.0750313 10197915
0.38770717 0.10917698 2.0750327 10197915
0.41263768 0.10917706 2.0750344 10197915
0.43756816 0.10917712 2.0750356 10197915
0.46249866 0.10917719 2.0750368 10197915
0.4874292 0.10917728 2.0750384 10197915
0.51235986 0.10917734 2.0750399 10197915
0.53729045 0.1091774 2.0750411 10197915
0.56222111 0.10917749 2.0750425 10197915
0.58715183 0.10917757 2.0750442 10197915
0.61294228 0.10917763 2.0750456 10197915
0.63787305 0.10917772 2.0750468 10197915
0.66280383 0.1091778 2.0750482 10197915
0.68773454 0.10917787 2.0750496 10197915
0.7126655 0.10917795 2.0750511 10197915
0.73759645 0.10917802 2.0750525 10197915
0.76252723 0.10917808 2.0750542 10197915
0.7874583 0.10917819 2.0750554 10197915
0.81238925 0.10917825 2.0750568 10197915
0.83732033 0.1091783 2.075058 10197915
0.86225146 0.1091784 2.0750597 10197915
0.88718241 0.10917847 2.0750613 10197915
0.91211355 0.10917854 2.0750623 10197915
0.9379046 0.10917863 2.0750639 10197915
0.95681792 0.10917868 2.0750651 10066329
1.340247 0.10917982 2.0750866 10000536
1.3625993 0.10917988 2.0750885 10197915
1.3875312 0.10917997 2.0750899 10197915
1.4124633 0.10918006 2.0750909 10197915
1.4373951 0.10918011 2.0750926 10197915
1.4623268 0.1091802 2.0750937 10197915
1.4872587 0.10918026 2.0750954 10197915
1.5121906 0.10918034 2.0750964 10197915
1.5371227 0.10918044 2.0750983 10197915
1.5620549 0.10918049 2.0750999 10197915
1.5878466 0.10918058 2.0751007 10197915
1.6127788 0.10918063 2.0751023 10197915
1.6377108 0.10918071 2.0751038 10197915
-1.6622531 0.10907172 2.1062007 10197915
-1.6369494 0.10907178 2.1062016 10197915
-1.6125183 0.10907186 2.1062036 10197915
-1.5880872 0.10907193 2.106205 10197915
-1.5627836 0.10907201 2.1062062 10197915
-1.5374798 0.10907209 2.1062074 10197915
-1.5130489 0.10907213 2.106209 10197915
-1.487745 0.10907222 2.1062102 10197915
-1.4624412 0.10907228 2.1062119 10197915
-1.4458629 0.10907233 2.1062124 10197915
-1.0549582 0.10907344 2.1062336 10197915
-1.0375069 0.1090735 2.1062348 10197915
-1.0122026 0.10907356 2.106236 10197915
-0.98777068 0.10907363 2.1062374 10197915
-0.9624663 0.10907368 2.1062388 10197915
-0.93716174 0.10907377 2.1062398 10197915
-0.9127298 0.10907383 2.1062415 10197915
-0.88742518 0.10907391 2.1062429 10197915
-0.86212075 0.10907399 2.1062441 10197915
-0.83768857 0.10907404 2.1062453 10197915
-0.81238395 0.10907412 2.1062472 10197915
-0.78707927 0.1090742 2.1062486 10197915
-0.76264721 0.10907425 2.1062493 10197915
-0.73734254 0.10907434 2.106251 10197915
-0.71203762 0.10907439 2.1062527 10197915
-0.6876055 0.10907447 2.1062539 10197915
-0.66230065 0.10907453 2.1062551 10197915
-0.63699573 0.1090746 2.1062565 10197915
-0.61256343 0.10907469 2.1062579 10197915
-0.58725846 0.10907473 2.1062591 10197915
-0.56195349 0.10907483 2.1062605 10197915
-0.537521 0.10907488 2.106262 10197915
-0.51308858 0.10907497 2.1062629 10197915
-0.49738201 0.10907499 2.1062641 10197915
0.28970912 0.10907724 2.1063073 10066329
0.31239739 0.1090773 2.1063085 10197915
0.33770356 0.10907737 2.1063097 10197915
0.36300972 0.10907746 2.1063113 10197915
0.38744339 0.10907752 2.1063125 10197915
0.41274959 0.1090776 2.1063142 10197915
0.43805596 0.10907768 2.1063159 10197915
0.46248966 0.10907775 2.1063173 10197915
0.4869234 0.10907783 2.1063187 10197915
0.5122298 0.1090779 2.1063201 10197915
0.53753626 0.10907798 2.1063216 10197915
0.56197006 0.10907805 2.106323 10197915
0.58727664 0.10907813 2.1063242 10197915
0.61258316 0.10907818 2.1063259 10197915
0.63701719 0.10907829 2.1063273 10197915
0.66232371 0.10907834 2.1063287 10197915
0.6876303 0.10907843 2.1063302 10197915
0.71206439 0.10907849 2.1063316 10197915
0.73737109 0.10907856 2.1063333 10197915
0.76267785 0.10907865 2.1063344 10197915
0.78711212 0.10907871 2.1063359 10197915
0.81241876 0.10907879 2.1063375 10197915
0.83772576 0.10907888 2.1063387 10197915
0.86216009 0.10907895 2.1063402 10197915
0.88746697 0.10907901 2.1063418 10197915
0.91277397 0.10907911 2.106343 10197915
0.93720829 0.10907917 2.1063447 10197915
0.96251523 0.10907925 2.1063459 10197915
0.9764778 0.10907929 2.1063468 9671571
1.3630694 0.10908044 2.106369 10066329
1.387504 0.10908053 2.1063707 10197915
1.4119393 0.10908059 2.1063721 10197915
1.4372469 0.10908066 2.1063735 10197915
1.4625547 0.10908074 2.106375 10197915
1.4869897 0.10908081 2.1063766 10197915
1.5122974 0.10908091 2.1063778 10197915
1.5376054 0.10908098 2.1063793 10197915
1.5620406 0.10908104 2.1063805 10197915
1.5873486 0.10908113 2.1063824 10197915
1.6126564 0.10908119 2.1063838 10197915
1.6370916 0.10908127 2.106385 10197915
1.6623998 0.10908134 2.1063867 10197915
-1.7000954 0.10896912 2.1384344 10197915
-1.6868073 0.10896915 2.1384354 10197915
-1.6620023 0.10896923 2.1384366 10197915
-1.6371974 0.10896931 2.138438 10197915
-1.6123923 0.10896938 2.1384394 10197915
-1.5875872 0.10896945 2.1384408 10197915
-1.5627822 0.1089695 2.1384423 10197915
-1.5379771 0.10896958 2.1384435 10197915
-1.5131719 0.10896964 2.1384451 10197915
-1.487481 0.10896972 2.1384466 10197915
-1.4688772 0.10896978 2.1384473 10197915
-1.0631307 0.10897092 2.1384697 10197915
-1.0374393 0.10897099 2.1384711 10197915
-1.0117475 0.10897105 2.1384723 10197915
-0.98694175 0.10897113 2.1384737 10197915
-0.96213591 0.10897119 2.1384754 10197915
-0.93733007 0.10897126 2.1384766 10197915
-0.91252422 0.10897136 2.1384778 10197915
-0.88771838 0.1089714 2.1384795 10197915
-0.86291236 0.10897148 2.1384809 10197915
-0.83810633 0.10897154 2.1384819 10197915
-0.81241447 0.10897162 2.1384835 10197915
-0.78672248 0.1089717 2.138485 10197915
-0.76191646 0.10897176 2.1384861 10197915
-0.73711032 0.10897184 2.1384873 10197915
-0.71230417 0.10897189 2.138489 10197915
-0.68749797 0.10897198 2.1384904 10197915
-0.66269177 0.10897206 2.1384914 10197915
-0.63788557 0.10897211 2.1384931 10197915
-0.61307919 0.10897219 2.1384947 10197915
-0.58827293 0.10897224 2.1384962 10197915
-0.5625807 0.10897232 2.1384971 10197915
-0.5368883 0.10897239 2.1384988 10197915
-0.51296794 0.10897246 2.1385002 10197915
0.29148528 0.10897474 2.1385448 10066329
0.31186286 0.10897481 2.1385462 10197915
0.33755633 0.10897489 2.1385472 10197915
0.36324993 0.10897495 2.1385491 10197915
0.38805744 0.10897505 2.1385503 10197915
0.41286501 0.1089751 2.138552 10197915
0.43767267 0.10897518 2.1385536 10197915
0.46248031 0.10897524 2.1385548 10197915
0.48728809 0.10897534 2.1385562 10197915
0.51209581 0.10897541 2.1385579 10197915
0.53690356 0.10897546 2.1385593 10197915
0.56171143 0.10897554 2.1385605 10197915
0.58740526 0.10897563 2.1385622 10197915
0.6130991 0.1089757 2.1385639 10197915
0.63790703 0.10897578 2.1385653 10197915
0.66271502 0.10897587 2.1385667 10197915
0.68752295 0.10897593 2.1385679 10197915
0.712331 0.10897601 2.1385694 10197915
0.73713905 0.10897608 2.138571 10197915
0.7619471 0.10897614 2.1385727 10197915
0.78675514 0.10897624 2.1385739 10197915
0.81244934 0.1089763 2.1385753 10197915
0.83814365 0.10897638 2.138577 10197915
0.86295176 0.10897647 2.1385784 10197915
0.88776004 0.10897653 2.1385798 10197915
0.91256839 0.10897661 2.138581 10197915
0.93737656 0.10897667 2.1385827 10197915
0.96218503 0.10897674 2.1385841 10197915
0.98344928 0.10897683 2.1385856 10132122
1.3732998 0.10897798 2.1386085 9276813
1.3874762 0.10897803 2.1386092 10197915
1.4122851 0.10897809 2.1386108 10197915
1.4370941 0.10897817 2.138612 10197915
1.4619033 0.10897826 2.1386132 10197915
1.4867126 0.10897832 2.1386151 10197915
1.5124077 0.10897841 2.1386168 10197915
1.5381027 0.10897849 2.1386182 10197915
1.562912 0.10897855 2.1386197 10197915
1.587721 0.10897862 2.1386209 10197915
1.6125304 0.10897868 2.1386225 10197915
1.6373397 0.10897876 2.1386237 10197915
1.6621491 0.10897887 2.1386251 10197915
1.6869583 0.10897893 2.1386263 10197915
1.700249 0.10897896 2.1386275 10197915
-1.7265189 0.10886336 2.1716707 10197915
-1.7130243 0.10886342 2.1716716 10197915
-1.6878338 0.10886348 2.1716731 10197915
-1.6626433 0.10886354 2.1716745 10197915
-1.6374528 0.10886361 2.1716762 10197915
-1.6122624 0.1088637 2.1716774 10197915
-1.5870715 0.10886376 2.1716788 10197915
-1.5618812 0.10886383 2.1716802 10197915
-1.5375901 0.1088639 2.1716814 10197915
-1.5132991 0.10886396 2.1716828 10197915
-1.4935063 0.10886401 2.171684 10197915
-1.0832535 0.10886518 2.1717069 10197915
-1.0625606 0.10886525 2.1717076 10197915
-1.038269 0.10886528 2.1717093 10197915
-1.0130779 0.10886538 2.171711 10197915
-0.98788643 0.10886545 2.1717122 10197915
-0.962695 0.10886551 2.1717134 10197915
-0.93750364 0.10886558 2.171715 10197915
-0.91231215 0.10886566 2.1717167 10197915
-0.88712072 0.10886574 2.1717179 10197915
-0.86192924 0.1088658 2.1717191 10197915
-0.83673763 0.10886587 2.1717207 10197915
-0.8124457 0.10886593 2.1717222 10197915
-0.78815383 0.10886598 2.1717236 10197915
-0.76296216 0.10886608 2.1717248 10197915
-0.73777056 0.10886614 2.1717265 10197915
-0.71257889 0.10886622 2.1717277 10197915
-0.68738711 0.1088663 2.1717293 10197915
-0.66219538 0.10886635 2.1717303 10197915
-0.63700354 0.10886644 2.1717319 10197915
-0.6118117 0.10886651 2.1717334 10197915
-0.58751953 0.10886657 2.1717346 10197915
-0.56322736 0.10886662 2.171736 10197915
-0.53803545 0.10886671 2.1717377 10197915
-0.51734203 0.10886677 2.1717386 10197915
0.29421642 0.10886908 2.1717846 10066329
0.31311125 0.10886912 2.1717858 10197915
0.33740455 0.10886919 2.171787 10197915
0.36169791 0.10886928 2.1717885 10197915
0.3868911 0.10886934 2.1717901 10197915
0.41208428 0.10886943 2.1717916 10197915
0.4372775 0.10886951 2.171793 10197915
0.46247077 0.10886957 2.1717949 10197915
0.48766401 0.10886966 2.1717961 10197915
0.51285732 0.10886972 2.1717973 10197915
0.53805071 0.1088698 2.1717989 10197915
0.56324416 0.10886987 2.1718006 10197915
0.58753783 0.10886995 2.171802 10197915
0.61183155 0.10887003 2.1718032 10197915
0.63702506 0.10887008 2.1718049 10197915
0.66221851 0.10887017 2.1718066 10197915
0.68741214 0.10887025 2.171808 10197915
0.71260577 0.10887032 2.1718099 10197915
0.73779923 0.10887039 2.1718106 10197915
0.76299304 0.10887047 2.1718125 10197915
0.78818667 0.10887055 2.1718142 10197915
0.81248081 0.10887063 2.1718156 10197915
0.83677483 0.10887069 2.1718168 10197915
0.86196852 0.10887076 2.1718183 10197915
0.88716251 0.10887085 2.1718197 10197915
0.91235638 0.10887091 2.1718216 10197915
0.93755013 0.10887099 2.1718233 10197915
0.96274424 0.10887108 2.1718247 10197915
0.98793823 0.10887115 2.1718259 10197915
1.0041343 0.10887119 2.1718268 10066329
1.3964455 0.10887237 2.1718502 9737364
1.4126421 0.10887241 2.1718516 10197915
1.4378368 0.10887249 2.1718526 10197915
1.4630315 0.10887256 2.1718543 10197915
1.4882261 0.10887264 2.1718559 10197915
1.5125209 0.10887273 2.1718574 10197915
1.5368158 0.10887278 2.171859 10197915
1.5620108 0.10887288 2.17186 10197915
1.5872053 0.10887294 2.1718619 10197915
1.6124003 0.10887301 2.1718633 10197915
1.6375953 0.10887308 2.1718647 10197915
1.6627901 0.10887315 2.1718659 10197915
1.6879851 0.10887324 2.1718676 10197915
1.7131802 0.1088733 2.1718695 10197915
1.7266774 0.10887335 2.17187 10197915
-1.7519492 0.10875428 2.2059567 10197915
-1.7373275 0.10875432 2.2059577 10197915
-1.712653 0.1087544 2.2059591 10197915
-1.687065 0.10875445 2.2059605 10197915
-1.6623908 0.10875452 2.2059617 10197915
-1.6377163 0.10875461 2.2059634 10197915
-1.6121281 0.10875467 2.2059648 10197915
-1.5874537 0.10875475 2.2059665 10197915
-1.5627793 0.1087548 2.2059674 10197915
-1.5371908 0.10875487 2.2059689 10197915
-1.5170857 0.10875493 2.2059703 10197915
-1.1049254 0.10875609 2.2059937 10197915
-1.0875614 0.10875615 2.2059948 10197915
-1.0619724 0.10875621 2.205996 10197915
-1.0372974 0.10875629 2.2059972 10197915
-1.0126221 0.10875635 2.2059989 10197915
-0.98703319 0.10875642 2.2060001 10197915
-0.96235788 0.10875648 2.2060015 10197915
-0.93768263 0.10875656 2.2060032 10197915
-0.91209346 0.10875662 2.2060046 10197915
-0.88741815 0.10875673 2.2060063 10197915
-0.86274278 0.10875678 2.2060072 10197915
-0.83715349 0.10875683 2.2060089 10197915
-0.81247813 0.10875691 2.2060103 10197915
-0.78780264 0.108757 2.2060115 10197915
-0.76221329 0.10875706 2.206013 10197915
-0.73753774 0.10875714 2.2060146 10197915
-0.71286237 0.10875719 2.2060158 10197915
-0.68727285 0.10875726 2.206017 10197915
-0.66259724 0.10875735 2.2060187 10197915
-0.63792163 0.10875738 2.2060201 10197915
-0.61233199 0.10875749 2.2060215 10197915
-0.58765638 0.10875754 2.2060227 10197915
-0.56298059 0.10875762 2.2060244 10197915
-0.53739095 0.10875769 2.2060258 10197915
-0.52094042 0.10875773 2.2060268 10197915
0.29611984 0.10876006 2.2060738 9934743
0.31257108 0.10876011 2.2060752 10197915
0.33724797 0.10876019 2.2060766 10197915
0.36192489 0.10876025 2.2060778 10197915
0.38751581 0.10876033 2.2060792 10197915
0.41310674 0.10876042 2.2060812 10197915
0.43778378 0.10876048 2.2060828 10197915
0.46246082 0.10876054 2.2060838 10197915
0.48805192 0.10876063 2.2060857 10197915
0.51272905 0.10876071 2.2060874 10197915
0.53740621 0.10876077 2.2060888 10197915
0.56299734 0.10876086 2.2060897 10197915
0.58767456 0.10876092 2.2060914 10197915
0.61235183 0.10876099 2.2060933 10197915
0.63794315 0.10876108 2.206095 10197915
0.66262043 0.10876115 2.2060964 10197915
0.68729782 0.10876121 2.2060974 10197915
0.71288919 0.10876131 2.206099 10197915
0.73756665 0.10876136 2.2061007 10197915
0.76224411 0.10876145 2.2061024 10197915
0.7878356 0.10876155 2.206104 10197915
0.81251323 0.10876159 2.206105 10197915
0.83719075 0.10876168 2.2061067 10197915
0.8627823 0.10876175 2.2061083 10197915
0.88745987 0.10876182 2.2061098 10197915
0.91213763 0.10876191 2.2061114 10197915
0.9377293 0.10876197 2.2061126 10197915
0.96240705 0.10876204 2.2061143 10197915
0.98708481 0.10876213 2.206116 10197915
1.0117626 0.10876219 2.2061174 10132122
1.4203223 0.10876342 2.2061422 9868950
1.4376886 0.10876347 2.2061429 10197915
1.4623669 0.10876356 2.2061448 10197915
1.4879595 0.10876361 2.2061465 10197915
1.5126379 0.1087637 2.2061479 10197915
1.5373163 0.10876376 2.2061493 10197915
1.5629091 0.10876385 2.2061508 10197915
1.5875875 0.10876393 2.2061522 10197915
1.6122663 0.10876398 2.2061539 10197915
1.6378587 0.10876407 2.2061553 10197915
1.6625375 0.10876416 2.2061565 10197915
1.6872164 0.10876422 2.2061582 10197915
1.712809 0.1087643 2.2061598 10197915
1.7374878 0.10876436 2.2061615 10197915
1.7521124 0.10876441 2.2061622 10197915
-1.7791237 0.10864169 2.2413425 10197915
-1.7624104 0.10864174 2.2413435 10197915
-1.7373403 0.10864181 2.2413449 10197915
-1.7122701 0.10864188 2.2413466 10197915
-1.6872001 0.10864195 2.241348 10197915
-1.6621301 0.10864202 2.2413497 10197915
-1.6370599 0.1086421 2.2413507 10197915
-1.612918 0.10864217 2.2413521 10197915
-1.5878479 0.10864223 2.2413538 10197915
-1.5627776 0.1086423 2.2413549 10197915
-1.5423499 0.10864235 2.2413564 10197915
-1.126364 0.10864352 2.2413805 10197915
-1.1124357 0.10864355 2.2413812 10197915
-1.0873649 0.10864364 2.2413828 10197915
-1.062294 0.1086437 2.2413843 10197915
-1.0372231 0.10864377 2.2413859 10197915
-1.012152 0.10864384 2.2413867 10197915
-0.98708093 0.1086439 2.2413886 10197915
-0.96293843 0.10864398 2.2413898 10197915
-0.93786746 0.10864405 2.2413909 10197915
-0.91279632 0.10864412 2.2413926 10197915
-0.88772517 0.10864417 2.2413943 10197915
-0.86265397 0.10864425 2.2413957 10197915
-0.83758277 0.10864432 2.2413971 10197915
-0.8125115 0.1086444 2.2413983 10197915
-0.7874403 0.10864447 2.2414 10197915
-0.76236904 0.10864453 2.2414017 10197915
-0.73729765 0.1086446 2.2414031 10197915
-0.71222621 0.10864468 2.2414045 10197915
-0.68715483 0.10864474 2.2414055 10197915
-0.66208339 0.10864483 2.2414072 10197915
-0.63794047 0.1086449 2.2414088 10197915
-0.61286896 0.10864496 2.2414098 10197915
-0.58779752 0.10864504 2.2414114 10197915
-0.5627259 0.1086451 2.2414134 10197915
-0.53765428 0.10864516 2.2414143 10197915
0.2990129 0.10864756 2.2414637 9737364
0.31294221 0.10864759 2.2414644 10197915
0.33708638 0.10864767 2.241466 10197915
0.36215919 0.10864774 2.2414672 10197915
0.38723198 0.10864782 2.2414689 10197915
0.41230488 0.10864788 2.2414706 10197915
0.43737766 0.10864795 2.241472 10197915
0.46245065 0.10864805 2.2414739 10197915
0.48752356 0.10864811 2.2414751 10197915
0.51259655 0.10864818 2.2414768 10197915
0.5376696 0.10864829 2.2414782 10197915
0.56274271 0.10864834 2.2414799 10197915
0.58781576 0.10864842 2.2414815 10197915
0.61288893 0.1086485 2.241483 10197915
0.6379621 0.10864855 2.2414844 10197915
0.66210657 0.10864865 2.2414858 10197915
0.68717992 0.1086487 2.2414877 10197915
0.71225321 0.10864878 2.2414894 10197915
0.7373265 0.10864884 2.2414906 10197915
0.76239979 0.10864895 2.2414923 10197915
0.78747314 0.10864901 2.2414937 10197915
0.81254667 0.10864909 2.2414951 10197915
0.83762008 0.10864915 2.2414968 10197915
0.86269349 0.10864924 2.2414985 10197915
0.88776696 0.10864931 2.2414997 10197915
0.9128406 0.10864938 2.2415013 10197915
0.93791407 0.10864945 2.241503 10197915
0.96298778 0.10864953 2.2415047 10197915
0.98713279 0.10864961 2.2415061 10197915
1.0122064 0.10864968 2.2415078 10197915
1.0326369 0.10864975 2.2415087 10132122
1.4440364 0.10865098 2.2415342 9934743
1.46261 0.10865104 2.2415354 10197915
1.4876844 0.10865109 2.2415369 10197915
1.5127587 0.10865118 2.2415385 10197915
1.5378332 0.10865126 2.2415397 10197915
1.5629076 0.10865132 2.2415414 10197915
1.5870533 0.1086514 2.2415431 10197915
1.6121279 0.10865146 2.2415445 10197915
1.6372024 0.10865155 2.2415462 10197915
1.662277 0.10865163 2.2415473 10197915
1.6873515 0.10865169 2.241549 10197915
1.7124262 0.10865177 2.2415507 10197915
1.737501 0.10865185 2.2415524 10197915
1.7625757 0.10865193 2.2415538 10197915
1.7792922 0.10865197 2.2415547 10197915
-1.8062406 0.10852543 2.2778823 10197915
-1.7873676 0.10852548 2.2778833 10197915
-1.7618887 0.10852555 2.277885 10197915
-1.7373537 0.10852563 2.2778859 10197915
-1.7128184 0.10852568 2.2778876 10197915
-1.6873395 0.10852576 2.2778895 10197915
-1.6618608 0.10852583 2.2778907 10197915
-1.6373255 0.10852589 2.2778924 10197915
-1.6127903 0.10852598 2.2778935 10197915
-1.5873114 0.10852604 2.2778952 10197915
-1.5665506 0.1085261 2.2778964 10197915
-1.13529 0.1085273 2.2779217 10197915
-1.1126413 0.10852735 2.2779231 10197915
-1.0881053 0.10852744 2.2779241 10197915
-1.0626258 0.1085275 2.2779257 10197915
-1.0371462 0.10852759 2.2779272 10197915
-1.0126102 0.10852765 2.2779288 10197915
-0.98807406 0.10852771 2.27793 10197915
-0.96259421 0.10852779 2.2779317 10197915
-0.93711442 0.10852786 2.2779331 10197915
-0.91257828 0.10852793 2.277935 10197915
-0.88804215 0.108528 2.2779365 10197915
-0.86256218 0.10852808 2.2779379 10197915
-0.83708233 0.10852814 2.2779391 10197915
-0.8125459 0.10852821 2.2779405 10197915
-0.78800964 0.10852827 2.2779419 10197915
-0.76252955 0.10852834 2.2779436 10197915
-0.73704952 0.10852844 2.277945 10197915
-0.71251309 0.10852849 2.2779465 10197915
-0.6879766 0.10852856 2.2779481 10197915
-0.66249651 0.10852863 2.2779493 10197915
-0.6370163 0.10852872 2.2779508 10197915
-0.61247981 0.10852876 2.2779524 10197915
-0.5879432 0.10852885 2.2779541 10197915
-0.56246293 0.10852892 2.2779555 10197915
-0.54170108 0.10852897 2.2779565 10197915
0.31332543 0.10853141 2.2780077 10066329
0.33691946 0.10853148 2.2780097 10197915
0.36240101 0.10853156 2.2780111 10197915
0.38788265 0.10853163 2.2780123 10197915
0.41242048 0.10853171 2.2780137 10197915
0.43695837 0.10853178 2.2780156 10197915
0.46244007 0.10853185 2.2780173 10197915
0.48792177 0.10853195 2.278019 10197915
0.51245981 0.108532 2.2780204 10197915
0.53699785 0.10853208 2.2780218 10197915
0.56247967 0.10853215 2.2780235 10197915
0.58796155 0.10853224 2.2780249 10197915
0.61249971 0.10853231 2.2780268 10197915
0.63703781 0.10853236 2.278028 10197915
0.66251987 0.10853244 2.2780297 10197915
0.68800187 0.10853252 2.2780313 10197915
0.71254009 0.10853259 2.2780328 10197915
0.73707837 0.10853267 2.2780344 10197915
0.76256055 0.10853275 2.2780361 10197915
0.78804266 0.10853282 2.2780375 10197915
0.81258112 0.10853291 2.278039 10197915
0.83711946 0.10853297 2.2780404 10197915
0.86260176 0.10853302 2.2780418 10197915
0.88808405 0.10853314 2.278044 10197915
0.91262269 0.10853319 2.2780457 10197915
0.93716121 0.10853327 2.2780468 10197915
0.96264368 0.10853337 2.2780488 10197915
0.98812604 0.10853343 2.2780497 10197915
1.0126647 0.10853349 2.2780516 10197915
1.0372034 0.10853357 2.2780533 10197915
1.0532479 0.10853361 2.278054 10066329
1.4675798 0.10853485 2.27808 9934743
1.4874002 0.10853492 2.2780812 10197915
1.5128833 0.10853498 2.2780828 10197915
1.5374227 0.10853506 2.2780843 10197915
1.5619621 0.10853512 2.2780859 10197915
1.5874454 0.10853521 2.2780876 10197915
1.6129285 0.10853529 2.2780893 10197915
1.6374683 0.10853534 2.2780907 10197915
1.662008 0.10853542 2.2780919 10197915
1.6874913 0.10853553 2.2780938 10197915
1.7129745 0.10853557 2.2780955 10197915
1.7375145 0.10853565 2.2780969 10197915
1.7620538 0.10853573 2.2780986 10197915
1.7875376 0.1085358 2.2780998 10197915
1.8064142 0.10853586 2.2781012 10197915
-1.8332971 0.10840532 2.3156331 10197915
-1.8121923 0.10840537 2.3156343 10197915
-1.787251 0.10840546 2.3156359 10197915
-1.7623092 0.10840552 2.3156374 10197915
-1.7373675 0.10840559 2.315639 10197915
-1.7124255 0.10840564 2.31564 10197915
-1.6874837 0.10840572 2.3156419 10197915
-1.6625419 0.10840579 2.3156433 10197915
-1.6376002 0.10840587 2.315645 10197915
-1.6126583 0.10840595 2.3156462 10197915
-1.5925127 0.10840599 2.3156474 10197915
-1.1569831 0.10840721 2.3156736 10197915
-1.1368372 0.10840726 2.3156748 10197915
-1.1118947 0.10840733 2.315676 10197915
-1.0869521 0.10840741 2.3156774 10197915
-1.0620096 0.10840748 2.3156793 10197915
-1.0370668 0.10840754 2.3156805 10197915
-1.0121242 0.10840762 2.3156819 10197915
-0.98718154 0.10840769 2.3156836 10197915
-0.96223885 0.10840774 2.315685 10197915
-0.93729597 0.10840783 2.3156867 10197915
-0.91235316 0.1084079 2.3156881 10197915
-0.8874104 0.10840797 2.3156896 10197915
-0.86246747 0.10840805 2.3156908 10197915
-0.83752453 0.10840809 2.3156927 10197915
-0.8125816 0.10840818 2.3156943 10197915
-0.78763866 0.10840824 2.3156955 10197915
-0.76269567 0.10840832 2.3156972 10197915
-0.73775262 0.1084084 2.3156984 10197915
-0.71280956 0.10840846 2.3157003 10197915
-0.68786645 0.1084085 2.3157017 10197915
-0.6629234 0.10840859 2.3157029 10197915
-0.63798016 0.10840866 2.3157043 10197915
-0.61303699 0.10840873 2.315706 10197915
-0.58809376 0.1084088 2.3157072 10197915
-0.56315053 0.10840886 2.3157086 10197915
-0.54684144 0.10840891 2.3157098 10197915
0.31564021 0.10841138 2.3157625 10066329
0.33674705 0.10841145 2.315764 10197915
0.3616915 0.10841152 2.3157654 10197915
0.38663608 0.1084116 2.315767 10197915
0.41158056 0.10841167 2.315769 10197915
0.43748459 0.10841175 2.3157706 10197915
0.46338859 0.10841184 2.3157725 10197915
0.48833323 0.1084119 2.3157735 10197915
0.51327795 0.10841195 2.3157752 10197915
0.53822261 0.10841204 2.3157768 10197915
0.56316745 0.10841213 2.3157785 10197915
0.58811218 0.10841219 2.3157802 10197915
0.61305702 0.10841227 2.3157816 10197915
0.6380018 0.10841233 2.315783 10197915
0.6629467 0.10841242 2.3157847 10197915
0.68789166 0.1084125 2.3157866 10197915
0.71283662 0.10841256 2.315788 10197915
0.73778158 0.10841264 2.3157897 10197915
0.76272672 0.10841273 2.3157911 10197915
0.78767169 0.10841278 2.3157926 10197915
0.81261677 0.10841286 2.3157942 10197915
0.83756191 0.10841293 2.3157961 10197915
0.86250699 0.108413 2.3157973 10197915
0.88745236 0.1084131 2.3157995 10197915
0.9123975 0.10841314 2.3158007 10197915
0.9373427 0.10841322 2.3158023 10197915
0.96228802 0.10841331 2.3158035 10197915
0.98723346 0.10841338 2.3158057 10197915
1.0121787 0.10841346 2.3158073 10197915
1.037124 0.10841351 2.3158083 10197915
1.0620694 0.10841361 2.31581 10132122
1.4928635 0.1084149 2.3158376 9934743
1.5130119 0.10841496 2.3158391 10197915
1.5379583 0.10841502 2.3158402 10197915
1.5629045 0.10841512 2.3158422 10197915
1.5878507 0.10841517 2.3158438 10197915
1.6127969 0.10841525 2.3158455 10197915
1.6377431 0.10841532 2.3158469 10197915
1.6626892 0.1084154 2.3158484 10197915
1.6876354 0.10841547 2.3158498 10197915
1.7125819 0.10841554 2.3158514 10197915
1.7375281 0.10841562 2.3158534 10197915
1.7624747 0.10841569 2.3158548 10197915
1.7874209 0.10841576 2.3158567 10197915
1.8123673 0.10841585 2.3158579 10197915
1.8334762 0.10841591 2.3158593 10197915
-1.8612653 0.10828116 2.3546565 10197915
-1.836879 0.10828122 2.3546579 10197915
-1.8124924 0.10828129 2.3546593 10197915
-1.7881056 0.10828137 2.3546605 10197915
-1.7627437 0.10828143 2.3546624 10197915
-1.7373817 0.1082815 2.3546641 10197915
-1.7120196 0.1082816 2.3546655 10197915
-1.6876329 0.10828165 2.3546667 10197915
-1.6632463 0.10828172 2.3546684 10197915
-1.637884 0.1082818 2.35467 10197915
-1.6183746 0.10828184 2.3546712 10197915
-1.1794075 0.10828307 2.3546977 10197915
-1.1618487 0.10828311 2.3546987 10197915
-1.1374611 0.10828317 2.3547001 10197915
-1.1130738 0.10828325 2.354702 10197915
-1.0877109 0.10828331 2.3547034 10197915
-1.0623479 0.10828339 2.3547053 10197915
-1.0369848 0.10828348 2.3547063 10197915
-1.0125972 0.10828353 2.354708 10197915
-0.98820978 0.10828359 2.3547096 10197915
-0.9628467 0.10828365 2.3547108 10197915
-0.93748355 0.10828376 2.3547122 10197915
-0.91212052 0.1082838 2.3547139 10197915
-0.88675714 0.10828388 2.3547156 10197915
-0.86236954 0.10828394 2.3547173 10197915
-0.83798176 0.108284 2.3547187 10197915
-0.81261849 0.10828411 2.3547199 10197915
-0.78725517 0.10828416 2.3547215 10197915
-0.76189178 0.10828424 2.3547227 10197915
-0.73750395 0.10828429 2.3547246 10197915
-0.71311599 0.10828437 2.3547261 10197915
-0.68775243 0.10828444 2.3547277 10197915
-0.66238904 0.10828452 2.3547289 10197915
-0.63702554 0.10828459 2.3547308 10197915
-0.61263746 0.10828465 2.3547323 10197915
-0.58824944 0.10828472 2.3547337 10197915
-0.56386131 0.10828477 2.3547349 10197915
0.31900859 0.10828732 2.35479 10066329
0.33754444 0.10828737 2.3547914 10197915
0.36193371 0.10828745 2.3547931 10197915
0.38729861 0.10828754 2.3547945 10197915
0.41266352 0.10828758 2.3547964 10197915
0.43802851 0.10828768 2.3547976 10197915
0.46241793 0.10828774 2.3547995 10197915
0.48680738 0.10828782 2.3548012 10197915
0.51217246 0.10828789 2.3548026 10197915
0.53753752 0.10828796 2.354804 10197915
0.56290269 0.10828804 2.3548059 10197915
0.58826792 0.10828812 2.3548079 10197915
0.61265755 0.10828819 2.354809 10197915
0.63704717 0.10828827 2.354811 10197915
0.66241252 0.10828833 2.3548126 10197915
0.68777776 0.10828841 2.3548138 10197915
0.71314305 0.10828849 2.3548157 10197915
0.73753291 0.10828856 2.3548172 10197915
0.76192278 0.10828865 2.3548188 10197915
0.78728831 0.10828869 2.3548205 10197915
0.8126536 0.10828878 2.3548222 10197915
0.83801925 0.10828888 2.3548241 10197915
0.86240929 0.10828892 2.3548253 10197915
0.88679916 0.108289 2.3548269 10197915
0.91216475 0.10828908 2.3548286 10197915
0.93753052 0.10828914 2.35483 10197915
0.96289629 0.10828923 2.3548319 10197915
0.98826194 0.10828931 2.3548334 10197915
1.0126522 0.10828937 2.354835 10197915
1.0370424 0.10828945 2.3548369 10197915
1.0624082 0.10828955 2.3548384 10197915
1.0838715 0.10828958 2.3548393 10132122
1.5180235 0.10829088 2.3548679 9934743
1.5375361 0.10829093 2.3548689 10197915
1.5619271 0.10829102 2.3548703 10197915
1.5872936 0.10829107 2.3548725 10197915
1.6126602 0.10829116 2.3548739 10197915
1.6380271 0.10829125 2.3548758 10197915
1.662418 0.10829132 2.3548775 10197915
1.6868093 0.10829139 2.3548787 10197915
1.7121755 0.10829146 2.3548808 10197915
1.7375426 0.10829152 2.3548822 10197915
1.7629094 0.10829163 2.3548837 10197915
1.7882766 0.10829168 2.3548853 10197915
1.8126674 0.10829175 2.3548868 10197915
1.8370589 0.10829185 2.3548884 10197915
1.8614503 0.10829192 2.3548901 10197915
-1.9020987 0.10815272 2.3950167 10197915
-1.887216 0.10815275 2.3950176 10197915
-1.8624114 0.1081528 2.3950191 10197915
-1.8376069 0.10815289 2.3950202 10197915
-1.8128024 0.10815299 2.3950219 10197915
-1.7870055 0.10815304 2.3950236 10197915
-1.7622012 0.1081531 2.3950253 10197915
-1.7373962 0.10815318 2.3950267 10197915
-1.7125916 0.10815325 2.3950281 10197915
-1.6877869 0.10815331 2.3950298 10197915
-1.66199 0.10815339 2.3950312 10197915
-1.6441307 0.10815343 2.3950324 10197915
-1.2026005 0.10815466 2.3950596 10197915
-1.1877173 0.10815472 2.395061 10197915
-1.1619197 0.10815477 2.3950624 10197915
-1.1371142 0.10815486 2.3950636 10197915
-1.1123087 0.1081549 2.3950653 10197915
-1.0875033 0.10815499 2.395067 10197915
-1.0626978 0.10815506 2.3950684 10197915
-1.0378923 0.10815513 2.3950698 10197915
-1.0130867 0.1081552 2.3950715 10197915
-0.98728883 0.10815526 2.3950732 10197915
-0.96248335 0.10815533 2.3950746 10197915
-0.93767762 0.10815538 2.3950763 10197915
-0.91287184 0.10815548 2.3950777 10197915
-0.88806617 0.10815556 2.3950791 10197915
-0.86226815 0.10815561 2.3950806 10197915
-0.83746243 0.10815568 2.3950825 10197915
-0.81265646 0.10815574 2.3950839 10197915
-0.78785068 0.10815584 2.3950851 10197915
-0.76304477 0.10815589 2.3950868 10197915
-0.73724657 0.10815596 2.3950884 10197915
-0.71244067 0.10815603 2.3950901 10197915
-0.68763471 0.1081561 2.3950918 10197915
-0.66282862 0.10815617 2.3950932 10197915
-0.63802254 0.10815624 2.3950944 10197915
-0.61222422 0.10815632 2.3950963 10197915
-0.58741814 0.10815638 2.395098 10197915
-0.56856549 0.10815643 2.3950992 10197915
0.32150012 0.10815898 2.3951554 9934743
0.33737683 0.10815904 2.3951566 10197915
0.3621842 0.1081591 2.3951583 10197915
0.38798383 0.10815918 2.39516 10197915
0.41279128 0.10815925 2.3951614 10197915
0.43759874 0.10815934 2.3951631 10197915
0.46240625 0.10815942 2.3951647 10197915
0.48721376 0.10815948 2.3951666 10197915
0.51301372 0.10815954 2.3951681 10197915
0.53782129 0.10815963 2.3951697 10197915
0.56262887 0.10815973 2.3951716 10197915
0.58743662 0.10815977 2.3951728 10197915
0.61224425 0.10815983 2.3951745 10197915
0.63804436 0.10815993 2.3951764 10197915
0.66285217 0.10816001 2.3951778 10197915
0.68765992 0.10816007 2.3951797 10197915
0.71246785 0.10816015 2.3951812 10197915
0.73727554 0.10816024 2.3951831 10197915
0.76307589 0.10816029 2.395184 10197915
0.78788382 0.10816038 2.3951862 10197915
0.81269175 0.10816045 2.3951879 10197915
0.8374998 0.10816053 2.3951895 10197915
0.86230785 0.10816061 2.3951912 10197915
0.88711596 0.10816067 2.3951926 10197915
0.91192406 0.10816074 2.3951943 10197915
0.93772453 0.10816082 2.395196 10197915
0.96253276 0.10816091 2.3951979 10197915
0.98734099 0.10816097 2.3951993 10197915
1.0121493 0.10816103 2.395201 10197915
1.0369575 0.10816112 2.3952029 10197915
1.0627582 0.1081612 2.3952043 10197915
1.0875665 0.10816128 2.395206 10197915
1.1054286 0.10816132 2.3952072 10066329
1.5430539 0.1081626 2.3952358 9934743
1.562901 0.10816267 2.3952372 10197915
1.58771 0.10816275 2.3952389 10197915
1.6125191 0.10816284 2.3952405 10197915
1.6373285 0.10816289 2.3952422 10197915
1.6621374 0.10816297 2.3952441 10197915
1.6879388 0.10816305 2.3952456 10197915
1.7127481 0.10816312 2.3952472 10197915
1.7375575 0.10816319 2.3952487 10197915
1.7623668 0.10816327 2.3952506 10197915
1.787176 0.10816334 2.395252 10197915
1.8129777 0.1081634 2.3952537 10197915
1.8377872 0.1081635 2.3952553 10197915
1.8625964 0.10816357 2.3952568 10197915
1.8874059 0.10816365 2.3952584 10197915
1.9022917 0.10816368 2.3952596 10197915
-1.931233 0.10801983 2.4367852 10197915
-1.9120528 0.10801987 2.4367867 10197915
-1.8878254 0.10801994 2.4367883 10197915
-1.862588 0.10802002 2.4367895 10197915
-1.8373508 0.10802007 2.4367912 10197915
-1.8131233 0.10802013 2.4367926 10197915
-1.7878861 0.10802023 2.4367943 10197915
-1.7626489 0.10802031 2.4367962 10197915
-1.7374115 0.10802036 2.4367974 10197915
-1.7121743 0.10802043 2.436799 10197915
-1.6879464 0.10802049 2.436801 10197915
-1.6717944 0.10802054 2.4368017 10197915
-1.2124692 0.10802183 2.4368303 10197915
-1.1872313 0.10802189 2.4368322 10197915
-1.1630028 0.10802197 2.4368336 10197915
-1.1377647 0.10802204 2.4368353 10197915
-1.1125268 0.10802209 2.4368367 10197915
-1.0872886 0.10802218 2.4368384 10197915
-1.0620505 0.10802224 2.4368401 10197915
-1.0378218 0.10802232 2.4368412 10197915
-1.0125836 0.10802238 2.4368434 10197915
-0.98734552 0.10802245 2.4368451 10197915
-0.96311671 0.10802251 2.4368463 10197915
-0.93787837 0.10802259 2.4368477 10197915
-0.91264004 0.10802266 2.4368494 10197915
-0.8874017 0.10802273 2.4368513 10197915
-0.86216331 0.10802281 2.4368527 10197915
-0.83793449 0.10802287 2.4368544 10197915
-0.81269592 0.10802293 2.4368556 10197915
-0.78745747 0.10802301 2.4368575 10197915
-0.76221901 0.10802308 2.4368589 10197915
-0.73698038 0.10802317 2.4368601 10197915
-0.71275133 0.1080232 2.4368618 10197915
-0.68751276 0.10802329 2.4368634 10197915
-0.66227406 0.10802335 2.4368651 10197915
-0.63804489 0.10802343 2.4368665 10197915
-0.6128062 0.10802351 2.4368682 10197915
-0.58756739 0.10802358 2.4368699 10197915
-0.5734337 0.1080236 2.4368706 10197915
0.32407856 0.10802618 2.436929 9342606
0.33720338 0.10802621 2.4369299 10197915
0.36244339 0.1080263 2.4369318 10197915
0.38768342 0.10802639 2.4369333 10197915
0.4119139 0.10802645 2.4369347 10197915
0.43715408 0.1080265 2.4369369 10197915
0.46239421 0.10802662 2.4369383 10197915
0.48763439 0.10802666 2.4369397 10197915
0.51287466 0.10802674 2.4369414 10197915
0.53710532 0.10802683 2.4369431 10197915
0.56234556 0.10802689 2.4369452 10197915
0.58758593 0.10802697 2.4369466 10197915
0.61282629 0.10802703 2.4369483 10197915
0.63806671 0.10802712 2.43695 10197915
0.66229755 0.1080272 2.4369516 10197915
0.68753809 0.10802727 2.4369533 10197915
0.71277851 0.10802733 2.4369547 10197915
0.73700935 0.10802741 2.4369566 10197915
0.76225001 0.10802749 2.4369586 10197915
0.78749061 0.10802756 2.43696 10197915
0.81273121 0.10802762 2.4369621 10197915
0.83797199 0.1080277 2.4369631 10197915
0.86220306 0.10802779 2.436965 10197915
0.88744384 0.10802786 2.4369664 10197915
0.91268462 0.10802794 2.4369683 10197915
0.93691581 0.10802799 2.43697 10197915
0.96215665 0.10802807 2.4369717 10197915
0.98739749 0.10802815 2.4369733 10197915
1.0126386 0.10802821 2.4369752 10197915
1.0378795 0.10802829 2.4369767 10197915
1.0621108 0.10802836 2.4369783 10197915
1.0873519 0.10802845 2.4369798 10197915
1.1125929 0.10802854 2.4369817 10197915
1.1277375 0.10802857 2.4369829 10000536
1.5689573 0.10802988 2.4370124 9868950
1.5871314 0.10802994 2.4370136 10197915
1.6123732 0.10803001 2.4370153 10197915
1.6376151 0.10803008 2.4370167 10197915
1.6628568 0.10803017 2.4370184 10197915
1.6880988 0.10803023 2.4370205 10197915
1.7123308 0.10803031 2.437022 10197915
1.7375728 0.10803037 2.4370236 10197915
1.7628149 0.10803045 2.4370251 10197915
1.787047 0.10803054 2.437027 10197915
1.8122891 0.10803059 2.4370284 10197915
1.8375311 0.10803068 2.4370306 10197915
1.8627733 0.10803077 2.4370322 10197915
1.8880153 0.10803082 2.4370339 10197915
1.9122478 0.10803089 2.4370353 10197915
1.931432 0.10803096 2.4370365 10197915
-1.9614013 0.10788222 2.4800367 10197915
-1.9377713 0.10788227 2.4800382 10197915
-1.9131137 0.10788235 2.4800398 10197915
-1.8874285 0.10788241 2.4800415 10197915
-1.8617435 0.10788249 2.4800434 10197915
-1.8370858 0.10788257 2.4800448 10197915
-1.812428 0.10788262 2.4800465 10197915
-1.7877704 0.10788269 2.4800479 10197915
-1.7631127 0.10788276 2.4800496 10197915
-1.7374274 0.10788285 2.4800513 10197915
-1.711742 0.10788291 2.4800532 10197915
-1.6983857 0.10788294 2.4800537 10197915
-1.236045 0.10788422 2.4800835 10197915
-1.212414 0.1078843 2.4800851 10197915
-1.1877555 0.10788437 2.4800861 10197915
-1.163097 0.10788443 2.480088 10197915
-1.1374109 0.10788451 2.4800897 10197915
-1.1117249 0.10788459 2.4800911 10197915
-1.0870663 0.10788465 2.4800928 10197915
-1.0624076 0.10788471 2.4800947 10197915
-1.0377489 0.10788476 2.4800963 10197915
-1.01309 0.10788486 2.4800978 10197915
-0.98740393 0.10788493 2.4800992 10197915
-0.96171767 0.107885 2.4801009 10197915
-0.93705875 0.10788506 2.4801023 10197915
-0.91239995 0.10788512 2.480104 10197915
-0.88774109 0.1078852 2.4801056 10197915
-0.86308211 0.10788527 2.4801071 10197915
-0.83739573 0.10788535 2.4801087 10197915
-0.81170934 0.10788541 2.4801104 10197915
-0.78705025 0.10788548 2.4801118 10197915
-0.76239127 0.10788556 2.4801137 10197915
-0.73773211 0.10788562 2.4801154 10197915
-0.71307302 0.1078857 2.4801171 10197915
-0.68738639 0.10788576 2.4801183 10197915
-0.66169977 0.10788583 2.4801199 10197915
-0.63704056 0.1078859 2.4801216 10197915
-0.61238134 0.10788596 2.4801233 10197915
-0.59080434 0.10788599 2.480124 10197915
0.33907878 0.1078887 2.480186 10066329
0.36168429 0.10788876 2.4801877 10197915
0.38737231 0.10788885 2.4801893 10197915
0.41306046 0.10788894 2.480191 10197915
0.4377211 0.107889 2.4801929 10197915
0.46238175 0.10788908 2.4801943 10197915
0.48704243 0.10788915 2.4801962 10197915
0.51170313 0.10788921 2.4801981 10197915
0.53739148 0.1078893 2.4801996 10197915
0.56307977 0.10788938 2.4802017 10197915
0.5877406 0.10788944 2.4802032 10197915
0.61240143 0.10788953 2.4802048 10197915
0.63706237 0.10788959 2.4802063 10197915
0.66172332 0.10788966 2.4802079 10197915
0.68741184 0.10788976 2.4802098 10197915
0.71310025 0.1078898 2.4802117 10197915
0.73776132 0.10788988 2.4802132 10197915
0.7624225 0.10788995 2.4802153 10197915
0.78708345 0.10789002 2.4802167 10197915
0.81174469 0.10789012 2.4802184 10197915
0.83743328 0.10789017 2.4802203 10197915
0.86312199 0.10789026 2.480222 10197915
0.88778329 0.10789032 2.4802234 10197915
0.91244465 0.1078904 2.4802253 10197915
0.93710583 0.10789049 2.480227 10197915
0.96176726 0.10789055 2.4802287 10197915
0.98745626 0.10789061 2.4802301 10197915
1.013145 0.10789072 2.4802322 10197915
1.0378064 0.10789079 2.4802339 10197915
1.0624681 0.10789084 2.4802353 10197915
1.0871295 0.10789093 2.4802375 10197915
1.1117911 0.10789102 2.4802392 10197915
1.1374803 0.10789108 2.4802403 10132122
1.5957804 0.10789243 2.4802718 9803157
1.6132494 0.10789251 2.480273 10197915
1.6379118 0.10789255 2.4802747 10197915
1.6625739 0.10789263 2.4802763 10197915
1.6872363 0.1078927 2.4802783 10197915
1.7118987 0.10789277 2.4802799 10197915
1.7375888 0.10789286 2.4802818 10197915
1.7632788 0.10789292 2.480283 10197915
1.7879411 0.107893 2.4802847 10197915
1.8126035 0.10789307 2.4802864 10197915
1.8372663 0.10789315 2.4802883 10197915
1.8619286 0.10789323 2.4802899 10197915
1.8876189 0.1078933 2.4802918 10197915
1.9133091 0.10789337 2.4802935 10197915
1.9379716 0.10789346 2.4802954 10197915
1.9616069 0.10789351 2.4802971 10197915
-2.0041656 0.1077396 2.5248508 10197915
-1.9874305 0.10773963 2.524852 10197915
-1.9623271 0.10773969 2.5248535 10197915
-1.937224 0.10773978 2.5248554 10197915
-1.9121209 0.10773986 2.5248566 10197915
-1.8870176 0.10773992 2.5248582 10197915
-1.8619145 0.10773998 2.5248601 10197915
-1.8368111 0.10774007 2.5248618 10197915
-1.8117079 0.10774013 2.5248635 10197915
-1.7866048 0.1077402 2.5248649 10197915
-1.762547 0.10774028 2.5248663 10197915
-1.7395356 0.10774034 2.524868 10197915
-1.2594268 0.10774167 2.5248992 10197915
-1.2374609 0.10774172 2.5249007 10197915
-1.2134027 0.10774177 2.5249023 10197915
-1.1882986 0.10774186 2.524904 10197915
-1.1631945 0.10774194 2.5249059 10197915
-1.1380903 0.107742 2.5249071 10197915
-1.1129861 0.10774208 2.5249088 10197915
-1.0878819 0.10774213 2.5249104 10197915
-1.0627775 0.10774221 2.5249121 10197915
-1.0376734 0.10774229 2.524914 10197915
-1.0125688 0.10774235 2.5249155 10197915
-0.98746449 0.10774243 2.5249171 10197915
-0.96236014 0.10774249 2.5249186 10197915
