# .PCD v0.7 - Point Cloud Data file format
VERSION 0.7
FIELDS x y z rgb
SIZE 4 4 4 4
TYPE F F F U
COUNT 1 1 1 1
WIDTH 1205
HEIGHT 1
VIEWPOINT 0 0 0 1 0 0 0
POINTS 1205
DATA ascii
-5.5174999 1.6615 0.1925 4281584691
-5.4935002 1.6795 -1.0605 4281584691
-5.4705 1.6955 0.79049999 4281584691
-5.7135 1.5065 -0.93550003 4281584691
-4.8825002 2.1645 -1.0165 4281584691
-6.7055001 0.71749997 -0.6045 4281584691
-5.7474999 1.4795001 -0.26050001 4281584691
-6.2445002 1.0835 0.92650002 4281584691
-4.8464999 2.1914999 -0.58850002 4281584691
-6.0885 1.2085 -1.3715 4281584691
-5.3804998 1.7695 -0.9655 4281584691
-6.3544998 0.99650002 0.86849999 4281584691
-5.0465002 2.0344999 -0.56349999 4281584691
-6.7515001 0.68449998 -0.49149999 4281584691
-5.0634999 2.0195 -1.0125 4281584691
-5.6155 1.5835 -1.0955 4281584691
-6.3245001 1.0225 -0.63450003 4281584691
-4.9945002 2.0715001 0.39750001 4281584691
-6.1585002 1.1545 -0.1295 4281584691
-5.1164999 1.9785 -0.52249998 4281584691
-6.0535002 1.2355 0.82450002 4281584691
-5.3695002 1.7754999 0.62449998 4281584691
-6.6554999 0.76050001 -0.43149999 4281584691
-6.0005002 1.2785 -1.1875 4281584691
-6.5365 0.85650003 -0.27650002 4281584691
-5.5935001 1.6015 -0.76050001 4281584691
-5.8214998 1.4205 -0.51850003 4281584691
-6.0844998 1.2125 -0.88550001 4281584691
-4.8635001 2.1795001 -0.88550001 4281584691
-5.3014998 1.8315001 0.17749999 4281584691
-5.4254999 1.7345001 0.1935 4281584691
-5.6725001 1.5375 -0.37450001 4281584691
-5.5784998 1.6125 -0.49250001 4281584691
-5.9524999 1.3175 -0.3955 4281584691
-5.5095 1.6665 0.4215 4281584691
-5.1954999 1.9165 -0.13950001 4281584691
-4.8674998 2.1715 0.7895 4281584691
-6.4245 0.9425 0.67449999 4281584691
-6.7925 0.64950001 0.66949999 4281584691
-5.2484999 1.8735 -0.3545 4281584691
-6.3425002 1.0095 -0.86150002 4281584691
-5.0304999 2.0465 -0.95350003 4281584691
-5.5314999 1.6475 0.77649999 4281584691
-5.0194998 2.0555 -0.89850003 4281584691
-6.5565 0.83950001 0.1205 4281584691
-5.0075002 2.0634999 -1.0255001 4281584691
-5.9895 1.2885 0.37450001 4281584691
-5.3414998 1.7995 -0.39750001 4281584691
-6.8004999 0.64249998 0.78149998 4281584691
-6.1244998 1.1815 0.13349999 4281584691
-5.7185001 1.5015 -0.34450001 4281584691
-6.0914998 1.2075 -0.4745 4281584691
-5.5695 1.6205 -0.70249999 4281584691
-6.4045 0.9605 -0.39449999 4281584691
-4.8905001 2.1575 -0.75150001 4281584691
-5.0955 1.9935 -1.3935 4281584691
-6.5945001 0.80849999 0.37549999 4281584691
-5.9274998 1.3345 0.75349998 4281584691
-6.1624999 1.1515 -0.093500003 4281584691
-6.3604999 0.99250001 0.58050001 4281584691
-5.7014999 1.5154999 -1.2575001 4281584691
-5.3484998 1.7955 -0.73650002 4281584691
-4.9695001 2.0915 0.60049999 4281584691
-5.6224999 1.5785 -0.75450003 4281584691
-5.6605 1.5455 0.83450001 4281584691
-5.8095002 1.4305 0.30050001 4281584691
-5.7154999 1.5035 0.38049999 4281584691
-6.2925 1.0465 0.3985 4281584691
-4.8395 2.1954999 0.1865 4281584691
-5.7414999 1.4835 0.55449998 4281584691
-5.5225 1.6565 -1.3865 4281584691
-6.0964999 1.2035 -0.046500001 4281584691
-5.1465001 1.9535 -1.2535 4281584691
-5.5324998 1.6495 -0.92949998 4281584691
-4.8474998 2.1914999 -1.2175 4281584691
-5.5124998 1.6645 -0.9325 4281584691
-5.2385001 1.8785 0.8215 4281584691
-6.2255001 1.1005 -1.3235 4281584691
-5.7265 1.4965 0.065499999 4281584691
-5.3614998 1.7845 0.26049998 4281584691
-6.6855001 0.73650002 -0.55449998 4281584691
-5.8845 1.3705 -1.0365 4281584691
-5.8074999 1.4325 0.33649999 4281584691
-6.6715002 0.74849999 -0.5575 4281584691
-5.1104999 1.9795001 0.72549999 4281584691
-5.9654999 1.3065 0.2455 4281584691
-4.8544998 2.1824999 0.2005 4281584691
-6.6675 0.7525 -0.4905 4281584691
-5.3724999 1.7735 0.66350001 4281584691
-4.8924999 2.1524999 0.38850001 4281584691
-5.2315001 1.8865 -0.8075 4281584691
-6.0595002 1.2305 0.59450001 4281584691
-5.3414998 1.8015 -0.066500001 4281584691
-4.8375001 2.1995001 -1.2135 4281584691
-4.9555001 2.1025 0.60949999 4281584691
-5.7195001 1.5025001 0.015499996 4281584691
-5.7995 1.4365 -1.3715 4281584691
-5.3055 1.8275 0.46149999 4281584691
-4.8604999 2.1795001 0.2545 4281584691
-6.6345 0.77749997 0.16149999 4281584691
-6.1155 1.1885 -1.2525001 4281584691
-5.4204998 1.7375 0.2445 4281584691
-4.9584999 2.1034999 -1.1645 4281584691
-5.2315001 1.8875 -0.26550001 4281584691
-5.7195001 1.4985 0.75849998 4281584691
-6.1624999 1.1515 -0.6225 4281584691
-6.7445002 0.69050002 -0.33649999 4281584691
-6.3855 0.9745 0.072499998 4281584691
-5.3835001 1.7654999 -1.4045 4281584691
-5.6745 1.5365 0.019499999 4281584691
-5.8325 1.4125 -0.91949999 4281584691
-5.9145002 1.3455 -1.4195 4281584691
-6.0595002 1.2325 -0.50449997 4281584691
-6.7895002 0.65450001 -0.017500002 4281584691
-6.6255002 0.78549999 -0.1185 4281584691
-5.3474998 1.7965 -0.92549998 4281584691
-6.1665001 1.1454999 0.64850003 4281584691
-5.9534998 1.3155 0.50449997 4281584691
-5.0005002 2.0704999 -0.65549999 4281584691
-5.3635001 1.7825 -0.6785 4281584691
-6.1574998 1.1525 0.81449997 4281584691
-4.8734999 2.1715 -0.46850002 4281584691
-6.3534999 1.0005 -1.0395 4281584691
-6.3975 0.9655 -0.1025 4281584691
-5.3195 1.8175 -0.91350001 4281584691
-6.1065001 1.1945 -1.2605 4281584691
-6.4965 0.88749999 -0.3215 4281584691
-6.6114998 0.79649997 -0.1955 4281584691
-5.8464999 1.4015 -0.37850001 4281584691
-4.8744998 2.1695001 -0.28049999 4281584691
-6.4864998 0.8955 -0.42550001 4281584691
-5.7245002 1.4965 -1.2775 4281584691
-5.0974998 1.9935 -1.2265 4281584691
-5.5675001 1.6215 0.046500001 4281584691
-6.6485 0.76550001 0.1045 4281584691
-5.1504998 1.9485 0.74049997 4281584691
-6.5584998 0.83850002 -0.58749998 4281584691
-4.9045 2.1445 -0.039500002 4281584691
-6.1385002 1.1715 -0.73650002 4281584691
-5.6085 1.5885 0.47549999 4281584691
-4.9324999 2.1224999 0.2335 4281584691
-6.3195 1.0275 -0.068500005 4281584691
-6.1145 1.1885 -0.8915 4281584691
-5.3095002 1.8255 -0.50349998 4281584691
-4.9514999 2.1045001 0.80250001 4281584691
-6.7115002 0.7155 -0.3955 4281584691
-6.8295002 0.62349999 -0.26949999 4281584691
-5.4285002 1.7305 -1.3055 4281584691
-6.4145002 0.94849998 0.8125 4281584691
-6.8214998 0.62849998 -0.50950003 4281584691
-5.9155002 1.3455 0.4795 4281584691
-6.8404999 0.60250002 0.53350002 4281584691
-6.0875001 1.2105 -0.79449999 4281584691
-5.1294999 1.9675 -0.050500002 4281584691
-6.1244998 1.1815 -0.69749999 4281584691
-4.8225002 2.2084999 0.1215 4281584691
-6.2564998 1.0745 0.76050001 4281584691
-5.5155001 1.6635 -0.56550002 4281584691
-5.7884998 1.4464999 -0.81150001 4281584691
-5.6935 1.5215 -1.1035 4281584691
-6.6415 0.77149999 -0.1795 4281584691
-6.3734999 0.9835 0.25049999 4281584691
-6.3685002 0.9885 -0.2105 4281584691
-5.9124999 1.3475 -1.3935 4281584691
-5.2005 1.9105 -1.1085 4281584691
-4.9885001 2.0795 -0.92150003 4281584691
-4.8685002 2.1724999 0.0995 4281584691
-5.6205001 1.5815001 -0.11350001 4281584691
-5.7234998 1.4985 -0.63050002 4281584691
-6.5545001 0.84249997 -0.2255 4281584691
-6.4775 0.9005 0.79149997 4281584691
-5.6935 1.5215 -0.67049998 4281584691
-6.6815 0.74049997 -0.48050001 4281584691
-6.3185 1.0275 0.28049999 4281584691
-5.6434999 1.5615 -0.81849998 4281584691
-5.8425002 1.4055001 -0.32449999 4281584691
-6.0654998 1.2275 -1.1174999 4281584691
-4.9594998 2.1034999 -0.52350003 4281584691
-6.6694999 0.74949998 0.2295 4281584691
-5.1764998 1.9295 0.25549999 4281584691
-6.1044998 1.1964999 -0.8585 4281584691
-6.1975002 1.1235 -0.8075 4281584691
-5.3295002 1.8105 -0.4725 4281584691
-5.0565 2.0235 0.63150001 4281584691
-6.7614999 0.67650002 -0.22150001 4281584691
-5.8534999 1.3975 0.15349999 4281584691
-5.4914999 1.6815 0.2185 4281584691
-6.6345 0.77450001 0.74550003 4281584691
-5.6875 1.5235 0.81949997 4281584691
-5.8284998 1.4135 0.79049999 4281584691
-6.1255002 1.1795 0.4145 4281584691
-5.2905002 1.8405 -0.48750001 4281584691
-5.7814999 1.4505 0.81550002 4281584691
-6.3635001 0.99250001 -0.066500001 4281584691
-6.4274998 0.94050002 0.38150001 4281584691
-5.1975002 1.9135 -1.2695 4281584691
-4.9914999 2.0785 -0.4465 4281584691
-5.3625002 1.7835 -1.2635 4281584691
-5.0114999 2.0585001 0.85949999 4281584691
-5.5365 1.6454999 -1.1705 4281584691
-4.8414998 2.1935 0.31349999 4281584691
-6.5995002 0.80549997 0.0995 4281584691
-6.1155 1.1885 0.36050001 4281584691
-5.1665001 1.9375 -1.4115 4281584691
-6.0265002 1.2575001 0.47749999 4281584691
-6.0675001 1.2244999 0.4655 4281584691
-5.8134999 1.4285001 -0.24950001 4281584691
-5.5165 1.6625 -1.2145 4281584691
-5.6314998 1.5714999 -0.29350001 4281584691
-5.8625002 1.3885 -1.0154999 4281584691
-5.9124999 1.3465 0.94449997 4281584691
-6.7874999 0.65649998 -0.3475 4281584691
-5.5374999 1.6465 -0.51550001 4281584691
-5.4994998 1.6755 -0.64950001 4281584691
-6.4615002 0.91350001 0.44049999 4281584691
-4.9015002 2.1475 0.4745 4281584691
-5.9854999 1.2885 0.78850001 4281584691
-5.9584999 1.3125 -1.0535001 4281584691
-5.0524998 2.0285001 -1.3105 4281584691
-6.5265002 0.86049998 0.7895 4281584691
-5.9415002 1.3245 -1.3835 4281584691
-5.2605 1.8645 -0.2705 4281584691
-6.6884999 0.73549998 -0.1485 4281584691
-5.6684999 1.5395 0.83749998 4281584691
-6.2605 1.0735 0.1815 4281584691
-6.7645001 0.67449999 -0.1265 4281584691
-5.6285 1.5735 -1.1025 4281584691
-5.7635002 1.4655 0.53249997 4281584691
-5.1385002 1.9595 -0.75450003 4281584691
-5.9714999 1.2995 0.89450002 4281584691
-5.5215001 1.6575 -1.1385 4281584691
-6.2414999 1.0895 -0.3865 4281584691
-6.3794999 0.97850001 0.1515 4281584691
-4.8924999 2.1554999 -0.4955 4281584691
-6.8435001 0.6085 0.5395 4281584691
-5.9355001 1.3305 0.3215 4281584691
-5.5395002 1.6445 -0.84649998 4281584691
-6.2845001 1.0545 -0.3355 4281584691
-6.2515001 1.0795 0.46450001 4281584691
-5.6374998 1.5664999 -0.89450002 4281584691
-5.4815001 1.6905 -1.4015 4281584691
-5.2284999 1.8885 0.015499996 4281584691
-6.6345 0.77749997 0.2775 4281584691
-6.2395 1.0895 0.5025 4281584691
-5.1135001 1.9785 0.63150001 4281584691
-5.8464999 1.4015 -0.74049997 4281584691
-4.8464999 2.1895001 0.45449999 4281584691
-6.1075001 1.1955 -0.1025 4281584691
-4.8874998 2.1594999 -1.0395 4281584691
-6.4365001 0.93550003 -0.27250001 4281584691
-5.7195001 1.5005 0.63450003 4281584691
-5.5504999 1.6355 -0.96950001 4281584691
-6.7925 0.6505 0.3105 4281584691
-5.7055001 1.5115 -1.3365 4281584691
-5.1244998 1.9715 0.2705 4281584691
-4.8555002 2.1845 -1.4155 4281584691
-6.1185002 1.1855 -1.3415 4281584691
-6.4924998 0.89050001 -0.50150001 4281584691
-4.9724998 2.0905001 -1.2335 4281584691
-5.3245001 1.8145 -0.77749997 4281584691
-5.3885002 1.7645 -0.4075 4281584691
-6.0485001 1.2405 -1.2165 4281584691
-5.6824999 1.5295 -1.1955 4281584691
-5.3464999 1.7975 -0.8495 4281584691
-6.2075 1.1155 -0.82749999 4281584691
-4.8705001 2.1724999 -1.3055 4281584691
-5.1925001 1.9175 -1.0955 4281584691
-5.7145 1.5045 0.27149999 4281584691
-6.3204999 1.0235 0.76950002 4281584691
-5.3785 1.7704999 -0.43349999 4281584691
-6.0114999 1.2685 -1.3415 4281584691
-5.0324998 2.0455 -1.0915 4281584691
-5.3355002 1.8045 0.1235 4281584691
-4.8625002 2.1795001 -0.7105 4281584691
-5.8755002 1.3785 -1.0635 4281584691
-5.6595001 1.5484999 -0.6225 4281584691
-4.8295002 2.2045 -0.11350001 4281584691
-5.3445001 1.7965 0.35749999 4281584691
-6.3664999 0.98750001 0.85949999 4281584691
-4.9115 2.1394999 -1.2055 4281584691
-6.8115001 0.63450003 0.61849999 4281584691
-5.6694999 1.5405 0.1955 4281584691
-5.2765002 1.8525 -0.89649999 4281584691
-6.5565 0.83850002 0.46349999 4281584691
-6.2205 1.1045001 -1.3805 4281584691
-5.3994999 1.7555 0.019499999 4281584691
-6.2214999 1.1045001 0.3845 4281584691
-5.1964998 1.9125 0.61250001 4281584691
-5.0755 2.0105 -1.0545 4281584691
-6.7754998 0.66149998 0.93349999 4281584691
-6.7575002 0.67650002 0.6875 4281584691
-4.8855 2.1594999 -1.3835 4281584691
-5.7544999 1.4725 -1.1365 4281584691
-5.1964998 1.9145 -1.1995 4281584691
-4.9685001 2.0915 0.61049998 4281584691
-5.4784999 1.6925 -0.26750001 4281584691
-6.8474998 0.60750002 -0.5165 4281584691
-6.7354999 0.69449997 0.92049998 4281584691
-6.7305002 0.70249999 -0.1825 4281584691
-5.9015002 1.3545001 0.89450002 4281584691
-5.1615 1.9395 0.79250002 4281584691
-5.8315001 1.4135 -0.3725 4281584691
-5.9085002 1.3515 -0.64050001 4281584691
-5.8835001 1.3724999 -0.99949998 4281584691
-6.2905002 1.0484999 -1.3685 4281584691
-6.3014998 1.0415 -0.46950001 4281584691
-5.3474998 1.7955 -0.4025 4281584691
-5.2414999 1.8795 0.2385 4281584691
-5.0155001 2.0574999 -1.3825001 4281584691
-5.5854998 1.6075 0.042499997 4281584691
-6.4134998 0.95050001 0.62849998 4281584691
-5.8014998 1.4375 -0.2225 4281584691
-5.6335001 1.5685 -1.2315 4281584691
-5.7645001 1.4645 -1.0215 4281584691
-6.0885 1.2095 -0.30950001 4281584691
-6.5165 0.86949998 0.5625 4281584691
-4.9705 2.0905001 0.79250002 4281584691
-5.8924999 1.3655 -0.4445 4281584691
-5.1945 1.9135 0.83649999 4281584691
-5.9365001 1.3305 -0.070500001 4281584691
-5.4844999 1.6835001 0.86250001 4281584691
-5.1025 1.9885 -0.78049999 4281584691
-5.1224999 1.9735 -0.68949997 4281584691
-5.9115 1.3515 -0.2105 4281584691
-6.3755002 0.9835 -0.99449998 4281584691
-5.6985002 1.5165 0.93949997 4281584691
-5.4285002 1.7305 -1.0655 4281584691
-5.7635002 1.4655 -1.3295 4281584691
-5.1275001 1.9685 -1.2155 4281584691
-5.3105001 1.8255 -0.91549999 4281584691
-5.0685 2.0155001 -1.2905 4281584691
-6.2335 1.0955 -1.0695 4281584691
-6.4025002 0.94849998 -1.4955 4281584691
-6.5844998 0.81650001 0.54049999 4281584691
-4.9345002 2.1215 0.14749999 4281584691
-5.8125 1.4265 0.57749999 4281584691
-6.4594998 0.91750002 -0.38850001 4281584691
-5.9844999 1.2925 -0.62849998 4281584691
-5.6444998 1.5625 -0.15350001 4281584691
-5.5374999 1.6425 0.85350001 4281584691
-5.1754999 1.9315 -0.79949999 4281584691
-5.8495002 1.3995 0.41549999 4281584691
-6.7484999 0.68550003 0.30950001 4281584691
-5.4215002 1.7375 0.2315 4281584691
-6.2354999 1.0935 -0.4165 4281584691
-6.5995002 0.80650002 -0.1365 4281584691
-6.8464999 0.6085 -0.2325 4281584691
-6.5584998 0.83749998 0.17550001 4281584691
-5.5535002 1.6325001 -0.63150001 4281584691
-6.6244998 0.78649998 -0.19850001 4281584691
-5.4594998 1.7095 -0.1825 4281584691
-6.1595001 1.1535 -0.71149999 4281584691
-5.4245 1.7325 0.93150002 4281584691
-5.3404999 1.8025 -0.37450001 4281584691
-6.3365002 1.0145 -0.79049999 4281584691
-6.3765001 0.97850001 0.78649998 4281584691
-5.1314998 1.9655 0.42050001 4281584691
-5.1285 1.9694999 -0.83450001 4281584691
-4.8014998 2.2244999 0.61849999 4281584691
-6.5135002 0.87049997 0.85250002 4281584691
-5.3534999 1.7895 0.051499996 4281584691
-5.3125 1.8214999 0.57950002 4281584691
-6.0574999 1.2335 -0.91049999 4281584691
-6.6645002 0.75449997 -0.0055000037 4281584691
-5.7435002 1.4825 -1.0025001 4281584691
-5.0974998 1.9935 -1.2995 4281584691
-6.4105 0.95450002 -0.028500002 4281584691
-6.2014999 1.1205 -1.0714999 4281584691
-6.0755 1.2205 -0.1895 4281584691
-4.9935002 2.0755 -1.1705 4281584691
-5.3175001 1.8164999 0.67549998 4281584691
-5.0584998 2.0235 0.18249999 4281584691
-5.9864998 1.2895 -1.3475 4281584691
-6.1894999 1.1265 0.85949999 4281584691
-5.6415 1.5625 0.38350001 4281584691
-6.5745001 0.82550001 -0.4795 4281584691
-6.1545 1.1575 -0.66850001 4281584691
-6.3134999 1.0325 -0.27149999 4281584691
-5.4165001 1.7405 0.10349999 4281584691
-6.4924998 0.89050001 -0.089500003 4281584691
-5.3074999 1.8264999 -1.2145 4281584691
-5.6314998 1.5714999 -0.7985 4281584691
-6.7824998 0.66049999 -0.1655 4281584691
-5.5634999 1.6215 0.87449998 4281584691
-5.6995001 1.5135 -1.4234999 4281584691
-5.0005002 2.0664999 0.90850002 4281584691
-6.1525002 1.1585 -0.52249998 4281584691
-6.7865 0.65450001 0.58649999 4281584691
-6.5574999 0.8355 0.92750001 4281584691
-5.8134999 1.4265 0.68449998 4281584691
-5.5914998 1.6035 -0.24350001 4281584691
-5.0725002 2.0125 0.19049999 4281584691
-6.1465001 1.1635 0.0014999977 4281584691
-5.8095002 1.4295 -1.0985 4281584691
-6.3225002 1.0245 -0.048500001 4281584691
-5.5815001 1.6105 -1.0875 4281584691
-5.0415001 2.0385001 -0.76050001 4281584691
-4.8555002 2.1824999 0.44850001 4281584691
-6.8195 0.62849998 0.5025 4281584691
-5.7034998 1.5135 0.40650001 4281584691
-5.4485002 1.7175 -0.14650001 4281584691
-6.3264999 1.0225 -0.4375 4281584691
-5.9245 1.3395 0.42649999 4281584691
-5.9464998 1.3235 -0.8495 4281584691
-5.7214999 1.5005 -0.49149999 4281584691
-5.6015 1.5944999 0.33950001 4281584691
-5.5465002 1.6385 -0.32550001 4281584691
-6.7814999 0.65850002 0.50349998 4281584691
-5.5105 1.6684999 -0.19149999 4281584691
-6.2335 1.0944999 -0.23649999 4281584691
-5.8195 1.4225 -0.61750001 4281584691
-6.8154998 0.62949997 0.6735 4281584691
-5.9305 1.3355 -0.29249999 4281584691
-6.1405001 1.1684999 -1.0944999 4281584691
-5.5254998 1.6545 -1.1115 4281584691
-4.8975 2.1524999 -0.6825 4281584691
-5.8225002 1.4195 -0.46450001 4281584691
-6.3765001 0.98250002 0.037499998 4281584691
-4.8134999 2.2154999 0.69449997 4281584691
-5.0854998 2.0035 -0.24950001 4281584691
-5.4145002 1.7424999 0.30050001 4281584691
-6.3674998 0.9885 0.3475 4281584691
-5.1574998 1.9445 -1.2775 4281584691
-5.1125002 1.9815 -0.064500004 4281584691
-5.0304999 2.0434999 0.69050002 4281584691
-5.8744998 1.3765 0.80150002 4281584691
-5.8655 1.3875 0.3495 4281584691
-5.4235001 1.7355 -0.30050001 4281584691
-6.2845001 1.0515 0.73650002 4281584691
-4.9074998 2.1394999 0.72250003 4281584691
-6.5725002 0.82550001 0.7295 4281584691
-6.1624999 1.1485 0.73250002 4281584691
-6.6795001 0.74150002 0.2225 4281584691
-5.2154999 1.8975 0.7845 4281584691
-6.1034999 1.1975 -0.62950003 4281584691
-5.2055001 1.9075 -0.2155 4281584691
-5.1704998 1.9355 -0.40650001 4281584691
-5.8965001 1.3615 -0.73250002 4281584691
-6.3775001 0.98250002 -0.8175 4281584691
-6.7005 0.72549999 -0.2025 4281584691
-6.2195001 1.1055 -0.5575 4281584691
-6.6995001 0.72350001 0.81550002 4281584691
-6.2975001 1.0445 -0.72850001 4281584691
-6.2465 1.0845 -0.9095 4281584691
-6.0374999 1.2474999 0.91049999 4281584691
-6.0955 1.2005 0.94349998 4281584691
-5.5225 1.6575 -0.64950001 4281584691
-5.0235 2.0504999 0.096500002 4281584691
-5.3225002 1.8145 -1.1075 4281584691
-5.2455001 1.8724999 0.91149998 4281584691
-6.1925001 1.1265 0.26049998 4281584691
-6.1135001 1.1905 -0.071500003 4281584691
-5.5595002 1.6275001 0.38549998 4281584691
-6.5114999 0.87550002 -0.1035 4281584691
-6.2905002 1.0505 -1.0835 4281584691
-6.7775002 0.66049999 0.62949997 4281584691
-5.0844998 2.0035 -1.1425 4281584691
-6.5285001 0.86250001 0.3425 4281584691
-5.3975 1.7555 0.3565 4281584691
-5.2754998 1.8525 0.19750001 4281584691
-5.7385001 1.4875 0.059499998 4281584691
-6.6094999 0.79549998 0.92149997 4281584691
-6.3175001 1.0285 -1.2645 4281584691
-6.1845002 1.1345 -1.2685 4281584691
-5.2785001 1.8494999 -0.7385 4281584691
-6.4274998 0.93949997 0.63550001 4281584691
-6.2125001 1.1085 0.88749999 4281584691
-5.5595002 1.6275001 -1.2095 4281584691
-5.5095 1.6675 -0.68949997 4281584691
-4.9805002 2.0855 -0.39250001 4281584691
-5.3095002 1.8255 -0.97649997 4281584691
-5.4635 1.7045 0.096500002 4281584691
-6.0504999 1.2395 -0.50150001 4281584691
-5.5355 1.6465 -0.96450001 4281584691
-5.3445001 1.7984999 -0.58649999 4281584691
-6.2294998 1.0975 -1.3904999 4281584691
-4.8134999 2.2184999 -0.79449999 4281584691
-4.7995 2.2244999 0.77450001 4281584691
-4.8565001 2.1845 -0.8495 4281584691
-6.0304999 1.2565 -0.73150003 4281584691
-5.4664998 1.7014999 -0.60650003 4281584691
-6.3035002 1.0395 -1.2255 4281584691
-6.3575001 0.99550003 0.7245 4281584691
-5.0984998 1.9885 0.75950003 4281584691
-6.5535002 0.84249997 -0.54149997 4281584691
-4.9264998 2.1285 -1.3315001 4281584691
-6.5974998 0.8035 0.92650002 4281584691
-6.5895 0.8125 0.4535 4281584691
-6.3435001 1.0065 -1.4175 4281584691
-5.5584998 1.6305 -0.1715 4281584691
-5.0625 2.0174999 0.83749998 4281584691
-6.6424999 0.76950002 0.5995 4281584691
-5.5805001 1.6095001 0.54549998 4281584691
-6.6325002 0.77749997 0.62849998 4281584691
-6.0995002 1.2015001 0.1175 4281584691
-6.7265 0.70349997 0.42249998 4281584691
-6.6034999 0.79949999 0.79750001 4281584691
-5.1815 1.9275 -0.4305 4281584691
-6.8445001 0.60350001 -0.0535 4281584691
-5.9145002 1.3475 0.29049999 4281584691
-4.9124999 2.1394999 0.021499997 4281584691
-5.5665002 1.6235 -0.2395 4281584691
-5.2234998 1.8945 -0.19050001 4281584691
-5.6805 1.5325 -0.79149997 4281584691
-5.2895002 1.8405 -1.3385 4281584691
-5.8544998 1.3945 -0.3335 4281584691
-5.0825 2.0044999 -0.5675 4281584691
-6.1085 1.1945 -0.2045 4281584691
-6.8035002 0.64349997 -0.31350002 4281584691
-5.3185 1.8205 -0.078500003 4281584691
-6.3385 1.0105 0.5715 4281584691
-5.9885001 1.2875 -1.1765 4281584691
-6.1865001 1.1315 0.34349999 4281584691
-6.1535001 1.1575 0.3795 4281584691
-6.2694998 1.0635 0.73949999 4281584691
-6.0425 1.2445 0.71450001 4281584691
-6.1164999 1.1875 -1.1404999 4281584691
-5.7835002 1.4505 0.60649997 4281584691
-5.1995001 1.9105 0.7705 4281584691
-4.8625002 2.1784999 0.3105 4281584691
-5.4745002 1.6955 -0.53049999 4281584691
-5.8505001 1.3975 -0.92949998 4281584691
-6.2895002 1.0515 -0.2045 4281584691
-6.0005002 1.2785 -1.3315001 4281584691
-5.7045002 1.5115 0.5255 4281584691
-6.8414998 0.60350001 0.9005 4281584691
-6.1935 1.1245 0.82450002 4281584691
-5.2275 1.8915 -0.059500001 4281584691
-5.9604998 1.3115 0.2845 4281584691
-5.6434999 1.5615 -1.1705 4281584691
-5.2154999 1.8995 -1.0484999 4281584691
-6.6135001 0.79149997 0.67650002 4281584691
-5.5295 1.6535 -0.071500003 4281584691
-5.3855 1.7635 -1.3665 4281584691
-6.0625 1.2315 -0.20650001 4281584691
-6.2944999 1.0465 -0.9605 4281584691
-6.3585 0.99650002 -1.1375 4281584691
-5.3585 1.7845 0.5905 4281584691
-6.5805001 0.8215 -0.3125 4281584691
-6.5374999 0.85549998 -0.2595 4281584691
-6.6345 0.77649999 0.2075 4281584691
-5.2985001 1.8355 -0.0535 4281584691
-6.4815001 0.89950001 -0.26449999 4281584691
-6.5475001 0.84750003 -0.24250001 4281584691
-5.0454998 2.0355 -0.80449998 4281584691
-5.7065001 1.5115 -0.7475 4281584691
-5.6355 1.5655 0.84350002 4281584691
-6.2925 1.0484999 -0.9235 4281584691
-5.1044998 1.9875 0.071499996 4281584691
-6.3464999 1.0055 0.015499996 4281584691
-5.2595 1.8655 -0.82849997 4281584691
-5.0574999 2.0244999 -0.72549999 4281584691
-5.2344999 1.8835 0.4885 4281584691
-6.3705001 0.98650002 0.1345 4281584691
-6.7164998 0.71149999 -0.54949999 4281584691
-6.5444999 0.84649998 0.91549999 4281584691
-5.2294998 1.8895 -0.44549999 4281584691
-6.3385 1.0115 0.3585 4281584691
-5.3924999 1.7605 -0.85149997 4281584691
-6.2624998 1.0725 -0.45250002 4281584691
-5.4245 1.7345001 -1.0295 4281584691
-6.6595001 0.74650002 -0.60750002 4281584691
-5.0904999 1.9995 -0.057500001 4281584691
-4.9705 2.0934999 -1.2645 4281584691
-6.2325001 1.0944999 -1.2735 4281584691
-4.9475002 2.1115 0.0495 4281584691
-6.7224998 0.70649999 -0.41350001 4281584691
-5.5235 1.6565 -1.3245 4281584691
-5.7814999 1.4514999 -1.4055001 4281584691
-6.2385001 1.0915 -0.65850002 4281584691
-6.5275002 0.8635 -0.0955 4281584691
-4.9015002 2.1454999 0.41350001 4281584691
-5.2195001 1.8975 -0.1435 4281584691
-6.0295 1.2565 -1.1235 4281584691
-6.5454998 0.84850001 -0.36250001 4281584691
-6.0844998 1.2105 0.60549998 4281584691
-6.1805 1.1345 0.86049998 4281584691
-5.6355 1.5664999 0.41049999 4281584691
-6.5784998 0.82050002 0.62150002 4281584691
-5.0714998 2.0125 0.50349998 4281584691
-5.2195001 1.8965 -0.3985 4281584691
-5.6185002 1.5795 0.80949998 4281584691
-4.8594999 2.1805 -1.2005 4281584691
-4.8274999 2.2054999 0.2155 4281584691
-5.7705002 1.4615 -0.58950001 4281584691
-6.7405 0.69150001 0.3515 4281584691
-5.4724998 1.6975 -0.88450003 4281584691
-5.1574998 1.9414999 0.86449999 4281584691
-6.6455002 0.76550001 0.85250002 4281584691
-5.9175 1.3444999 -0.88450003 4281584691
-5.1834998 1.9245 -1.0765001 4281584691
-6.7335 0.69849998 0.28049999 4281584691
-5.4435 1.7194999 -0.8635 4281584691
-5.5844998 1.6085 -0.6965 4281584691
-5.2305002 1.8875 -1.3985 4281584691
-4.8534999 2.1854999 -0.1185 4281584691
-5.0165 2.0574999 -0.79750001 4281584691
-5.7224998 1.4995 -0.91549999 4281584691
-5.2705002 1.8545001 0.6505 4281584691
-5.1434999 1.9575 -0.97250003 4281584691
-5.2715001 1.8545001 0.52350003 4281584691
-5.2684999 1.8575 -1.2065001 4281584691
-6.2804999 1.0585001 -0.45649999 4281584691
-5.1845002 1.9245 -0.056500003 4281584691
-6.0044999 1.2765 -0.95350003 4281584691
-4.9074998 2.1385 0.8725 4281584691
-6.8165002 0.63349998 -0.45050001 4281584691
-4.8255 2.2065001 0.0175 4281584691
-6.0774999 1.2194999 -0.1345 4281584691
-6.7624998 0.67250001 0.66549999 4281584691
-6.5395002 0.85049999 0.76849997 4281584691
-6.7465 0.6875 0.034499995 4281584691
-6.1875 1.1325001 0.010499998 4281584691
-5.8734999 1.3815 -0.29949999 4281584691
-5.0735002 2.0125 -1.1485 4281584691
-4.8084998 2.2214999 -0.1635 4281584691
-5.9305 1.3335 0.42249998 4281584691
-4.8845 2.1605 0.2095 4281584691
-6.3765001 0.9835 -0.3795 4281584691
-6.0235 1.2605 0.33050001 4281584691
-5.7484999 1.4775 -1.1015 4281584691
-5.3585 1.7835 0.88249999 4281584691
-5.9124999 1.3515 -0.25749999 4281584691
-6.6044998 0.7985 0.73949999 4281584691
-6.2645001 1.0705 -0.5675 4281584691
-6.2785001 1.0595 -1.3015 4281584691
-5.6234999 1.5705 -1.4234999 4281584691
-5.1504998 1.9525 -0.36050001 4281584691
-6.4805002 0.89850003 0.44049999 4281584691
-4.9324999 2.1235001 -1.2704999 4281584691
-6.5644999 0.83050001 0.93650001 4281584691
-6.5105 0.87550002 0.1725 4281584691
-4.9355001 2.1175001 0.80049998 4281584691
-6.6985002 0.72549999 0.63849998 4281584691
-5.5405002 1.6425 -1.3625 4281584691
-5.6164999 1.5815001 -1.4005001 4281584691
-5.8134999 1.4255 0.69449997 4281584691
-6.2125001 1.1085 0.78149998 4281584691
-6.0574999 1.2345001 -0.72250003 4281584691
-6.3105001 1.0345 -0.72750002 4281584691
-6.0345001 1.2515 0.63450003 4281584691
-6.2575002 1.0755 -0.75150001 4281584691
-5.3874998 1.7645 -0.00050000148 4281584691
-5.5194998 1.6585 -1.1215 4281584691
-5.3664999 1.7805001 0.092499994 4281584691
-6.8435001 0.6045 0.2145 4281584691
-6.3315001 1.0145 0.82950002 4281584691
-6.1894999 1.1265 0.9145 4281584691
-6.3885002 0.97350001 -0.50150001 4281584691
-5.4794998 1.6914999 0.33149999 4281584691
-6.7635002 0.67150003 0.87849998 4281584691
-5.1174998 1.9765 0.32449999 4281584691
-6.4745002 0.90350002 0.46250001 4281584691
-5.2835002 1.8435 0.7105 4281584691
-6.6224999 0.78750002 -0.21950001 4281584691
-5.8944998 1.3605 0.9145 4281584691
-5.9295001 1.3345 0.67449999 4281584691
-6.6374998 0.7755 -0.0065000029 4281584691
-5.4235001 1.7355 0.011499997 4281584691
-5.2175002 1.8985 -0.5205 4281584691
-4.8455 2.1884999 0.79149997 4281584691
-4.9485002 2.1115 -1.1425 4281584691
-5.4064999 1.7495 -0.3035 4281584691
-6.7245002 0.70649999 -0.5485 4281584691
-6.3105001 1.0335 0.32049999 4281584691
-6.8074999 0.63950002 0.075499997 4281584691
-5.7655001 1.4645 0.6875 4281584691
-6.0235 1.2595 0.6225 4281584691
-6.7944999 0.6505 -0.2475 4281584691
-6.6945 0.72850001 0.2305 4281584691
-5.5075002 1.6695 0.074499995 4281584691
-6.3445001 1.0065 -0.024500003 4281584691
-5.6985002 1.5175 0.2385 4281584691
-5.0725002 2.0125 0.1575 4281584691
-5.0075002 2.0615001 0.80949998 4281584691
-5.7824998 1.4495 0.5115 4281584691
-5.6034999 1.5925 0.6045 4281584691
-6.7775002 0.6645 -0.22150001 4281584691
-6.4345002 0.92549998 -1.4965 4281584691
-5.5454998 1.6385 0.092499994 4281584691
-5.9635 1.3075 -1.4075 4281584691
-5.1015 1.9865 0.83149999 4281584691
-5.5444999 1.6395 -1.2455 4281584691
-5.5275002 1.6535 -0.6225 4281584691
-5.2024999 1.9105 -0.94950002 4281584691
-5.2205 1.8965 -0.70550001 4281584691
-6.2944999 1.0465 -0.88050002 4281584691
-5.0184999 2.0555 -0.74449998 4281584691
-6.1145 1.1885 -1.0495 4281584691
-5.8334999 1.4125 -0.016500004 4281584691
-5.6065001 1.5895 -1.3595001 4281584691
-5.6205001 1.5785 -1.2245001 4281584691
-5.5135002 1.6635 -0.95350003 4281584691
-6.2055001 1.1174999 -0.3425 4281584691
-6.6945 0.72850001 0.83249998 4281584691
-6.5555 0.83749998 0.91350001 4281584691
-6.7335 0.69950002 0.036499999 4281584691
-6.2744999 1.0625 -0.2775 4281584691
-5.5194998 1.6585 -0.33750001 4281584691
-5.6395001 1.5655 -0.77950001 4281584691
-6.2325001 1.0955 0.3475 4281584691
-6.5374999 0.85149997 0.64050001 4281584691
-6.4965 0.88749999 -0.070500001 4281584691
-4.9695001 2.0934999 0.34349999 4281584691
-6.5625 0.83450001 0.091499999 4281584691
-6.7684999 0.67049998 -0.56950003 4281584691
-5.2125001 1.9015 -0.6925 4281584691
-6.6275001 0.78149998 0.42550001 4281584691
-4.8375001 2.1954999 0.5675 4281584691
-6.0095 1.2704999 -1.3645 4281584691
-6.2265 1.0975 0.69050002 4281584691
-6.7954998 0.64950001 -0.58249998 4281584691
-5.9635 1.3075 0.54949999 4281584691
-5.0165 2.0574999 -0.92449999 4281584691
-6.2275 1.0965 0.78549999 4281584691
-5.8994999 1.3595001 -0.57950002 4281584691
-5.8705001 1.3815 -1.2855 4281584691
-5.7335 1.4895 -1.3525 4281584691
-5.5584998 1.6285 -1.4105 4281584691
-4.8284998 2.2054999 -1.2595 4281584691
-6.4404998 0.9325 -0.37549999 4281584691
-5.0865002 2.0014999 0.3955 4281584691
-5.4534998 1.7115 -0.4885 4281584691
-5.2855 1.8435 0.34549999 4281584691
-5.8534999 1.3945 -1.3625 4281584691
-5.0324998 2.0425 0.49450001 4281584691
-6.6195002 0.78850001 0.5025 4281584691
-4.8095002 2.2214999 -1.0295 4281584691
-6.1964998 1.1245 -0.1345 4281584691
-6.4565001 0.91649997 0.92949998 4281584691
-6.3565001 0.9975 0.32249999 4281584691
-6.3885002 0.97149998 0.4145 4281584691
-5.5355 1.6465 0.16249999 4281584691
-5.3965001 1.7565 0.3335 4281584691
-4.8284998 2.2065001 -0.3425 4281584691
-5.3004999 1.8325 -0.27250001 4281584691
-6.4615002 0.91549999 -0.1455 4281584691
-5.2214999 1.8935 0.43450001 4281584691
-6.1015 1.1995 -0.24950001 4281584691
-5.0545001 2.0285001 -0.093500003 4281584691
-6.0805001 1.2165 0.21949999 4281584691
-5.9215002 1.3385 0.93150002 4281584691
-6.5265002 0.8635 -0.40450001 4281584691
-4.9175 2.1335001 0.70450002 4281584691
-5.5535002 1.6325001 -0.5855 4281584691
-5.5945001 1.5985 0.89349997 4281584691
-5.6694999 1.5385 0.82450002 4281584691
-5.4625001 1.7055 -0.5345 4281584691
-4.9384999 2.1185 -1.1675 4281584691
-5.9155002 1.3475 0.088500001 4281584691
-6.1925001 1.1275001 -0.1425 4281584691
-6.7414999 0.69349998 -0.032499999 4281584691
-6.4654999 0.91149998 -0.55449998 4281584691
-4.8775001 2.1645 0.75849998 4281584691
-5.9825001 1.2925 0.49149999 4281584691
-5.0064998 2.0655 -0.61650002 4281584691
-5.0365 2.0415001 -1.1325001 4281584691
-6.4475002 0.9235 0.64349997 4281584691
-4.9225001 2.1264999 0.85250002 4281584691
-5.3445001 1.7984999 -1.2445 4281584691
-5.8825002 1.3735 -0.86449999 4281584691
-6.4025002 0.95950001 0.8405 4281584691
-5.7824998 1.4505 -1.1775 4281584691
-6.4334998 0.93550003 0.26449999 4281584691
-5.3845 1.7654999 0.28650001 4281584691
-6.3985 0.96350002 0.42550001 4281584691
-6.4524999 0.92250001 -0.19050001 4281584691
-5.1085 1.9845001 -0.17749999 4281584691
-4.9305 2.1255 -1.2925 4281584691
-6.2655001 1.0695 -0.62150002 4281584691
-6.7125001 0.71450001 0.57050002 4281584691
-5.2205 1.8925 0.61150002 4281584691
-4.8975 2.1515 -1.4175 4281584691
-5.8874998 1.3685 0.45249999 4281584691
-6.1094999 1.1925 -0.97549999 4281584691
-5.3214998 1.8135 0.79149997 4281584691
-5.6034999 1.5935 -0.59149998 4281584691
-6.4165001 0.94950002 -0.56050003 4281584691
-6.3014998 1.0415 -0.65649998 4281584691
-5.9045 1.3565 -0.011500001 4281584691
-5.3195 1.8175 -1.1215 4281584691
-5.8755002 1.3774999 -0.66650003 4281584691
-5.9365001 1.3295 -0.51249999 4281584691
-4.9565001 2.1055 -0.92549998 4281584691
-5.3985 1.7545 0.41249999 4281584691
-5.0834999 2.0065 -0.2105 4281584691
-6.8214998 0.63050002 -0.34150001 4281584691
-5.0035 2.0664999 0.013499997 4281584691
-5.2474999 1.8755 -0.078500003 4281584691
-6.6155 0.79350001 -0.1075 4281584691
-4.9914999 2.0775001 -0.34549999 4281584691
-6.3874998 0.96350002 -0.68449998 4281584691
-4.8045001 2.2235 -1.3525 4281584691
-4.8705001 2.1735001 -0.35949999 4281584691
-4.8864999 2.1605 -0.47150001 4281584691
-6.0454998 1.2435 -0.67250001 4281584691
-4.8315001 2.2045 -0.68449998 4281584691
-5.0825 2.0044999 -0.63550001 4281584691
-4.9524999 2.1094999 -0.67549998 4281584691
-6.2105002 1.1135 0.13949999 4281584691
-4.9784999 2.0845001 0.3635 4281584691
-5.6675 1.5434999 -0.1825 4281584691
-5.3944998 1.7575001 0.37149999 4281584691
-5.2294998 1.8855 0.94749999 4281584691
-5.0085001 2.0604999 0.6925 4281584691
-5.6185002 1.5795 0.65649998 4281584691
-5.8534999 1.3935 0.54649997 4281584691
-6.2835002 1.0555 -0.2705 4281584691
-4.9685001 2.0955 -0.1895 4281584691
-5.8715 1.3805 -1.2325 4281584691
-6.8115001 0.63450003 0.90850002 4281584691
-5.6605 1.5355 -1.4265 4281584691
-5.3414998 1.8005 -0.77149999 4281584691
-5.1845002 1.9245 -0.1795 4281584691
-6.7265 0.70450002 -0.29949999 4281584691
-6.5504999 0.84450001 -0.2595 4281584691
-6.3814998 0.97549999 0.55449998 4281584691
-5.8445001 1.4035 0.1455 4281584691
-5.0225 2.0525 -0.92250001 4281584691
-5.8484998 1.3995 -0.8495 4281584691
-6.4955001 0.88849998 -0.48050001 4281584691
-4.9165001 2.1355 -0.089500003 4281584691
-5.4664998 1.7014999 -1.1985 4281584691
-6.3464999 1.0065 -0.90350002 4281584691
-5.0625 2.0215001 -1.0425 4281584691
-6.3365002 1.0145 -0.2005 4281584691
-6.2744999 1.0625 -0.60750002 4281584691
-6.3074999 1.0345 0.56849998 4281584691
-5.3414998 1.7995 0.27149999 4281584691
-6.6005001 0.80549997 0.26049998 4281584691
-5.1954999 1.9155 0.1735 4281584691
-5.6754999 1.5365 0.27450001 4281584691
-5.3825002 1.7685 -0.68150002 4281584691
-5.5595002 1.6275001 -1.1675 4281584691
-5.9724998 1.3015 -1.0335 4281584691
-5.8994999 1.3605 0.2705 4281584691
-5.3544998 1.7885 0.52749997 4281584691
-5.0725002 2.0125 -0.64649999 4281584691
-6.8065 0.6415 -0.50050002 4281584691
-6.2575002 1.0755 -0.22050001 4281584691
-5.7824998 1.4505 -1.0015 4281584691
-6.3365002 1.0145 -0.16950001 4281584691
-6.3575001 0.9975 -0.77350003 4281584691
-5.5774999 1.6125 0.67150003 4281584691
-5.8315001 1.4115 0.71649998 4281584691
-6.1815 1.1365 0.2685 4281584691
-5.8395 1.4055001 -1.1964999 4281584691
-6.2154999 1.1105 -0.30450001 4281584691
-6.2125001 1.1115 -0.8545 4281584691
-5.3144999 1.8214999 -0.97149998 4281584691
-6.2605 1.0735 -0.3545 4281584691
-6.6925001 0.73049998 0.57550001 4281584691
-6.0345001 1.2525001 -0.047500003 4281584691
-5.8325 1.4135 -0.85049999 4281584691
-5.0314999 2.0465 -0.19149999 4281584691
-5.2795 1.8494999 -0.79750001 4281584691
-6.3715 0.98549998 -1.3405 4281584691
-5.7445002 1.4795001 0.83249998 4281584691
-5.8435001 1.4045 0.35249999 4281584691
-5.6294999 1.5615 -1.4234999 4281584691
-5.8014998 1.4355 -0.52649999 4281584691
-4.8765001 2.1675 -0.89249998 4281584691
-5.4965 1.6775 -1.0795 4281584691
-4.9635 2.0994999 -0.69950002 4281584691
-4.9064999 2.1415 0.63749999 4281584691
-5.5974998 1.5994999 -0.1195 4281584691
-6.2175002 1.1055 0.65549999 4281584691
-6.0295 1.2585 -0.069499999 4281584691
-6.0454998 1.2415 0.8955 4281584691
-6.3864999 0.9605 -1.4945 4281584691
-6.6114998 0.79649997 -0.056500003 4281584691
-5.2075 1.9035 0.74150002 4281584691
-6.7364998 0.69349998 0.91149998 4281584691
-5.0974998 1.9935 -0.91049999 4281584691
-4.8055 2.2225001 -1.3095 4281584691
-6.7414999 0.69150001 -0.53850001 4281584691
-4.8635001 2.1784999 -1.1315 4281584691
-6.5295 0.8585 0.9145 4281584691
-6.5275002 0.86250001 -0.5675 4281584691
-5.0105 2.0615001 -1.4184999 4281584691
-5.8585 1.3925 0.26350001 4281584691
-6.0625 1.2285 -1.3835 4281584691
-6.3484998 1.0024999 -1.3895 4281584691
-5.1285 1.9694999 -0.9145 4281584691
-5.4584999 1.7055 0.57849997 4281584691
-5.1005001 1.9905 -0.94550002 4281584691
-5.2874999 1.8425 -0.88249999 4281584691
-6.3185 1.0265 -1.3385 4281584691
-6.4264998 0.9425 0.20649999 4281584691
-4.9264998 2.1275001 -1.3755 4281584691
-5.1574998 1.9455 0.3845 4281584691
-5.6215 1.5795 -1.0995001 4281584691
-4.8895001 2.1565001 0.27849999 4281584691
-5.2614999 1.8645 -0.92750001 4281584691
-5.4394999 1.7225 -0.82450002 4281584691
-6.7554998 0.67750001 0.85350001 4281584691
-4.8845 2.1605 0.48749998 4281584691
-5.6995001 1.5175 -0.78850001 4281584691
-6.6645002 0.75150001 0.71249998 4281584691
-5.9045 1.3565 -0.32249999 4281584691
-6.8255 0.62550002 0.39649999 4281584691
-5.8435001 1.4035 -0.54449999 4281584691
-5.8134999 1.4275 -0.38850001 4281584691
-6.0644999 1.2275 0.75950003 4281584691
-6.1114998 1.1925 -0.035500005 4281584691
-5.1964998 1.9145 -1.3345 4281584691
-5.3685002 1.7785 0.3405 4281584691
-4.8325 2.1995001 0.5115 4281584691
-6.7245002 0.70450002 0.44150001 4281584691
-5.8105001 1.4295 -0.40549999 4281584691
-6.2075 1.1165 -0.096500002 4281584691
-5.9235001 1.3415 0.070500001 4281584691
-5.9285002 1.3355 -0.95550001 4281584691
-6.7874999 0.65549999 -0.083500005 4281584691
-5.7934999 1.4445 -0.1235 4281584691
-6.6545 0.7615 0.1725 4281584691
-4.9334998 2.1224999 -1.2255 4281584691
-5.6645002 1.5425 0.71450001 4281584691
-6.3915 0.97049999 0.0255 4281584691
-6.4375 0.93449998 -0.1505 4281584691
-5.0244999 2.0504999 -0.32550001 4281584691
-5.9045 1.3555 -1.0795 4281584691
-5.2554998 1.8685 -0.4765 4281584691
-6.6945 0.73049998 -0.25650001 4281584691
-5.6294999 1.5714999 -1.2975 4281584691
-5.5565 1.6305 -0.57349998 4281584691
-5.9225001 1.3405 -1.1115 4281584691
-5.4635 1.7035 -0.65850002 4281584691
-6.8355002 0.61449999 0.73650002 4281584691
-5.4225001 1.7365 -0.98049998 4281584691
-6.4875002 0.89450002 -0.26250002 4281584691
-5.4594998 1.7085 -0.1305 4281584691
-6.5355 0.85549998 0.42550001 4281584691
-6.3295002 1.0185 -0.5715 4281584691
-6.3734999 0.98049998 0.90149999 4281584691
-4.9375 2.1185 0.1105 4281584691
-6.7674999 0.67250001 -0.058500003 4281584691
-5.7344999 1.4885 -1.1245 4281584691
-5.0295 2.0455 -1.3135 4281584691
-5.9565001 1.3155 -0.25350001 4281584691
-5.2484999 1.8745 -0.90350002 4281584691
-5.4115 1.7455 -1.1125 4281584691
-6.2595 1.0745 -0.92250001 4281584691
-5.9994998 1.2795 -1.0785 4281584691
-5.3525 1.7915 -0.87949997 4281584691
-5.3264999 1.8125 -0.24150001 4281584691
-4.8245001 2.2095001 -0.3125 4281584691
-6.6865001 0.73650002 -0.41850001 4281584691
-5.3994999 1.7535 -1.3444999 4281584691
-6.0735002 1.2194999 0.82450002 4281584691
-6.7785001 0.66250002 -0.30649999 4281584691
-4.9124999 2.1394999 -0.5625 4281584691
-6.4534998 0.91850001 0.8175 4281584691
-5.6385002 1.5664999 0.16249999 4281584691
-5.5235 1.6555001 0.33250001 4281584691
-5.6114998 1.5855 0.74150002 4281584691
-5.3165002 1.8205 -0.37150002 4281584691
-5.0035 2.0675001 -1.3615 4281584691
-6.5465002 0.84750003 0.4165 4281584691
-5.2874999 1.8405 0.58950001 4281584691
-6.2715001 1.0655 -1.2045 4281584691
-6.7055001 0.72250003 -0.1295 4281584691
-5.6725001 1.5375 0.5255 4281584691
-5.1034999 1.9875 0.4815 4281584691
-6.0415001 1.2474999 -0.80849999 4281584691
-5.1494999 1.9495 0.5765 4281584691
-5.2224998 1.8945 -0.8215 4281584691
-5.4454999 1.7145 0.8175 4281584691
-6.0805001 1.2155 0.2035 4281584691
-5.1475 1.9535 -0.49149999 4281584691
-6.0184999 1.2654999 -0.069499999 4281584691
-6.3635001 0.99250001 -0.82550001 4281584691
-5.1525002 1.9485 -0.72549999 4281584691
-6.2725 1.0615 0.77249998 4281584691
-6.8144999 0.63550001 -0.2105 4281584691
-6.5704999 0.8265 0.74949998 4281584691
-6.8235002 0.62849998 -0.33250001 4281584691
-5.0685 2.0155001 0.39250001 4281584691
-5.4404998 1.7215 -1.3585 4281584691
-6.3365002 1.0135 -0.56150001 4281584691
-5.5755 1.6155 -0.13350001 4281584691
-6.2005 1.1215 -0.72549999 4281584691
-5.0885 2.0005 -0.011500001 4281584691
-6.4875002 0.8915 0.70050001 4281584691
-4.8375001 2.1975 0.1005 4281584691
-5.4264998 1.7335 0.34349999 4281584691
-5.2735 1.8535 0.3195 4281584691
-5.6615 1.5475 -1.1195 4281584691
-5.4495001 1.7115 0.91850001 4281584691
-4.9664998 2.0964999 -1.1605 4281584691
-5.0634999 2.0165 0.7615 4281584691
-5.9645 1.3095 -0.1645 4281584691
-6.7405 0.69349998 -0.32249999 4281584691
-5.7934999 1.4425 -1.0944999 4281584691
-4.9584999 2.0994999 0.80150002 4281584691
-5.3264999 1.8125 -0.025500003 4281584691
-5.8825002 1.3735 -0.91750002 4281584691
-6.5764999 0.82349998 0.42550001 4281584691
-4.8004999 2.2244999 0.59450001 4281584691
-6.4505 0.9235 -0.1295 4281584691
-5.8185 1.4245 -0.21250001 4281584691
-5.6754999 1.5355 0.49950001 4281584691
-6.7535 0.6825 -0.57050002 4281584691
-6.5695 0.82950002 -0.3195 4281584691
-5.8284998 1.4155 -0.0035000003 4281584691
-6.0834999 1.2125 -1.2255 4281584691
-5.0425 2.0365 -0.43850002 4281584691
-6.4875002 0.89450002 -0.49649999 4281584691
-6.7284999 0.70249999 0.23549999 4281584691
-6.7725 0.6645 0.70349997 4281584691
-5.9274998 1.3375 0.1505 4281584691
-6.3585 0.9975 -0.26949999 4281584691
-5.1285 1.9685 0.33750001 4281584691
-5.8715 1.3815 0.2895 4281584691
-5.5755 1.6155 -0.034500003 4281584691
-4.9524999 2.1064999 0.3565 4281584691
-6.6155 0.79350001 -0.27849999 4281584691
-5.0265002 2.0474999 0.58850002 4281584691
-6.4045 0.95950001 0.40149999 4281584691
-6.3864999 0.9605 -0.81650001 4281584691
-6.1855001 1.1325001 -1.3705 4281584691
-4.8274999 2.2065001 -0.3865 4281584691
-4.8045001 2.2214999 0.55549997 4281584691
-6.0145001 1.2695 0.2255 4281584691
-5.8165002 1.4225 0.89850003 4281584691
-6.1314998 1.1734999 0.55549997 4281584691
-6.6025 0.8035 -0.1965 4281584691
-5.8334999 1.4105 0.4655 4281584691
-6.5795002 0.82050002 0.2965 4281584691
-5.7775002 1.4555 -0.37450001 4281584691
-6.8455 0.60250002 -0.5765 4281584691
-6.1244998 1.1805 0.34650001 4281584691
-6.1244998 1.1805 -1.0185 4281584691
-5.7474999 1.4795001 -0.95050001 4281584691
-5.6355 1.5655 0.69849998 4281584691
-4.9175 2.1355 -0.2265 4281584691
-5.7375002 1.4855 0.93049997 4281584691
-6.4235001 0.94449997 0.4535 4281584691
-6.8065 0.63950002 0.14650001 4281584691
-6.4675002 0.90750003 0.57450002 4281584691
-5.2414999 1.8795 -1.2645 4281584691
-5.4394999 1.7235 0.3775 4281584691
-5.8734999 1.3785 -1.3305 4281584691
-6.8024998 0.6415 0.93449998 4281584691
-5.6234999 1.5765001 0.048499998 4281584691
-5.4885001 1.6845 -1.0065 4281584691
-6.5755 0.82450002 -0.17550001 4281584691
-6.5584998 0.83850002 -0.1605 4281584691
-6.2884998 1.0515 -1.1585 4281584691
-6.7325001 0.70050001 -0.13950001 4281584691
-6.1135001 1.1895 -1.1155 4281584691
-6.7005 0.72250003 0.91549999 4281584691
-5.9565001 1.3135 0.45649999 4281584691
-6.2934999 1.0484999 -1.1295 4281584691
-6.4274998 0.93949997 0.72350001 4281584691
-6.7645001 0.67049998 0.76950002 4281584691
-4.8334999 2.2025001 -0.34850001 4281584691
-5.6915002 1.5235 -1.0935 4281584691
-4.9105 2.1324999 -1.4265 4281584691
-6.6174998 0.79049999 0.1725 4281584691
-6.0875001 1.2105 0.084499992 4281584691
-5.4184999 1.7395 -0.0425 4281584691
-6.1104999 1.1925 -0.0085000023 4281584691
-6.1995001 1.1224999 -1.0525 4281584691
-6.4895 0.8915 0.2465 4281584691
-5.4974999 1.6745 0.81449997 4281584691
-6.6314998 0.78049999 -0.1895 4281584691
-5.7484999 1.4785 -0.6925 4281584691
-6.0945001 1.2035 -1.2085 4281584691
-4.8185 2.2095001 0.8635 4281584691
-5.9775 1.2885 -1.4234999 4281584691
-5.2075 1.9065 -0.016500004 4281584691
-6.7635002 0.67250001 0.72049999 4281584691
-5.9254999 1.3405 -0.33849999 4281584691
-5.4095001 1.7485 -0.065500006 4281584691
-5.3125 1.8225 -1.2365 4281584691
-5.4805002 1.6905 -0.50950003 4281584691
-5.2515001 1.8715 -0.60549998 4281584691
-6.0764999 1.2194999 -0.50950003 4281584691
-6.6595001 0.75650001 0.5395 4281584691
-6.6805 0.7385 0.93949997 4281584691
-5.7985001 1.4395 -0.2315 4281584691
-5.0815001 2.0065 -0.77450001 4281584691
-5.0405002 2.0355 0.55949998 4281584691
-6.7895002 0.65350002 -0.2105 4281584691
-5.2224998 1.8945 0.1285 4281584691
-5.1055002 1.9875 -0.16150001 4281584691
-5.0875001 1.9995 0.27950001 4281584691
-5.8214998 1.4215 -0.74650002 4281584691
-5.8744998 1.3795 -0.95249999 4281584691
-5.0755 2.0105 0.069499999 4281584691
-5.9264998 1.3365 -1.1365 4281584691
-6.1125002 1.1905 -0.69450003 4281584691
-6.0184999 1.2625 -1.3695 4281584691
-5.8355002 1.4085 0.52649999 4281584691
-6.8315001 0.62150002 -0.51550001 4281584691
-5.1535001 1.9485 -1.0475 4281584691
-4.8635001 2.1765001 0.28549999 4281584691
-5.1465001 1.9555 -0.52850002 4281584691
-4.8565001 2.1835001 -1.0575 4281584691
-6.1275001 1.1785001 -0.56550002 4281584691
-5.1655002 1.9395 -0.62950003 4281584691
-5.3814998 1.7685 -0.030500002 4281584691
-5.9274998 1.3345 0.83850002 4281584691
-6.4645 0.91250002 -0.26550001 4281584691
-5.6234999 1.5765001 -1.2685 4281584691
-5.5805001 1.6095001 0.68049997 4281584691
-5.3004999 1.8335 -0.2455 4281584691
-5.1205001 1.9755 -0.63849998 4281584691
-5.0355 2.0404999 0.32350001 4281584691
-5.3095002 1.8255 -0.58850002 4281584691
-5.9274998 1.3365 -1.1905 4281584691
-5.6135001 1.5845 -1.0405 4281584691
-4.9134998 2.1345 0.62449998 4281584691
-5.6585002 1.5505 0.2085 4281584691
-6.3705001 0.9835 0.6645 4281584691
-4.8794999 2.1645 0.27149999 4281584691
-6.8455 0.61250001 -0.52450001 4281584691
-5.3225002 1.8155 -0.76950002 4281584691
-6.3794999 0.98049998 -0.88050002 4281584691
-6.2245002 1.1015 -0.92549998 4281584691
-6.0844998 1.2105 -1.2645 4281584691
-5.5015001 1.6734999 -0.48750001 4281584691
-6.0984998 1.2025 0.048499998 4281584691
-6.0155001 1.2685 -0.84750003 4281584691
-6.1114998 1.1895 0.54949999 4281584691
-5.0075002 2.0604999 0.78549999 4281584691
-6.1735001 1.1425 -0.1085 4281584691
-6.4155002 0.95050001 0.3285 4281584691
-5.6605 1.5475 -1.0484999 4281584691
-6.0124998 1.2695 -0.54949999 4281584691
-6.1044998 1.1985 -0.1485 4281584691
-6.5475001 0.84350002 0.88950002 4281584691
-5.1164999 1.9785 0.1805 4281584691
-6.7354999 0.69749999 -0.36149999 4281584691
-6.0504999 1.2405 0.2455 4281584691
-4.8185 2.2145 -0.1285 4281584691
-6.3035002 1.0385 0.38549998 4281584691
-6.8004999 0.64249998 0.84149998 4281584691
-6.0444999 1.2445 -0.42250001 4281584691
-5.4134998 1.7435 -0.66949999 4281584691
-6.8435001 0.61150002 0.1925 4281584691
-5.8274999 1.4165 0.4165 4281584691
-4.9305 2.1255 -0.2665 4281584691
-5.9685001 1.3045 -1.2215 4281584691
-5.9565001 1.3155 -0.74849999 4281584691
-5.7214999 1.4974999 0.86150002 4281584691
-4.8495002 2.1875 -1.4005001 4281584691
-5.0005002 2.0704999 -0.58350003 4281584691
-6.1605 1.1495 0.6785 4281584691
-6.1904998 1.1295 -0.0135 4281584691
-6.6455002 0.76849997 0.3175 4281584691
-5.2645001 1.8615 -1.0335 4281584691
-5.8664999 1.3845 -1.3115 4281584691
-5.1715002 1.9295 0.90850002 4281584691
-5.9714999 1.3035001 -0.7665 4281584691
-5.9285002 1.3335 0.7665 4281584691
-5.8645 1.3895 0.1215 4281584691
-5.2154999 1.9004999 -0.53750002 4281584691
-4.9675002 2.0955 -1.0714999 4281584691
-5.7785001 1.4535 -1.0714999 4281584691
-6.4015002 0.96249998 0.052499998 4281584691
-5.7525001 1.4755 -0.4835 4281584691
-5.3445001 1.7984999 -0.2525 4281584691
-5.9534998 1.3175 0.047499999 4281584691
-5.0285001 2.0474999 -0.76950002 4281584691
-6.7294998 0.70249999 0.1455 4281584691
-6.4025002 0.96249998 -0.25350001 4281584691
-4.8245001 2.2095001 -1.0215 4281584691
-6.4805002 0.89749998 0.87150002 4281584691
-4.9705 2.0955 -0.4905 4281584691
-4.8154998 2.2165 -0.2045 4281584691
-5.1574998 1.9455 -1.0944999 4281584691
-6.6925001 0.73049998 0.48949999 4281584691
-5.6764998 1.5355 0.3125 4281584691
-4.9705 2.0915 0.59149998 4281584691
-5.5574999 1.6295 -0.61449999 4281584691
-5.4225001 1.7365 -0.83749998 4281584691
-6.5205002 0.86750001 -0.029500002 4281584691
-6.1005001 1.1985 -1.4005001 4281584691
-6.1915002 1.1245 0.9425 4281584691
-5.9274998 1.3385 -0.3935 4281584691
-5.4274998 1.7255 -1.4225 4281584691
-4.8125 2.2175 0.23450001 4281584691
-6.1385002 1.1705 -0.2385 4281584691
-6.2684999 1.0675 -0.38350001 4281584691
-5.9015002 1.3595001 0.1145 4281584691
-5.3365002 1.8035001 -0.57050002 4281584691
-4.9825001 2.0785 -1.4255 4281584691
-5.3655 1.7815 -0.2225 4281584691
-6.6385002 0.77450001 0.2475 4281584691
-5.0595002 2.0235 -0.89749998 4281584691
-5.9095001 1.3494999 0.56550002 4281584691
-6.1715002 1.1435 0.25150001 4281584691
-6.1774998 1.1375 0.63950002 4281584691
-4.9815001 2.0855 -0.031500001 4281584691
-4.9495001 2.1105001 -1.0095 4281584691
-4.8474998 2.1905 0.29350001 4281584691
-6.7895002 0.65249997 0.4425 4281584691
-6.6975002 0.72649997 0.53549999 4281584691
-5.8614998 1.3875 -1.3495001 4281584691
-5.0444999 2.0344999 0.087499999 4281584691
-6.3915 0.96950001 -1.1485 4281584691
-6.1764998 1.1395 -0.50050002 4281584691
-6.3664999 0.97649997 -1.4355 4281584691
