# .PCD v0.7 - Point Cloud Data file format
VERSION 0.7
FIELDS x y z rgb
SIZE 4 4 4 4
TYPE F F F U
COUNT 1 1 1 1
WIDTH 1215
HEIGHT 1
VIEWPOINT 0 0 0 1 0 0 0
POINTS 1215
DATA ascii
-4.6525002 -1.2355 -1.1495 4294927872
-4.6535001 -1.2345001 -1.1415 4294927872
-5.6374998 0.022499999 -1.2654999 4294927872
-4.6655002 -1.2185 -1.1485 4294927872
-6.3585 0.9285 -0.73650002 4294927872
-4.6595001 -1.2244999 -1.1435 4294927872
-5.7824998 0.2175 -0.73549998 4294927872
-4.6665001 -1.2175 -1.1385 4294927872
-4.6485 -1.2405 -1.1305 4294927872
-4.6545 -1.2325 -1.1295 4294927872
-4.6465001 -1.2415 -1.1225001 4294927872
-4.6605 -1.2244999 -1.1355 4294927872
-4.6645002 -1.2205 -1.1285 4294927872
-4.6564999 -1.2285 -1.1225001 4294927872
-4.6424999 -1.2485 -1.1145 4294927872
-4.6244998 -1.2704999 -1.1174999 4294927872
-5.7915001 0.2235 -0.67949998 4294927872
-4.6265001 -1.2685 -1.1085 4294927872
-4.6215 -1.2755001 -1.1105 4294927872
-4.6345 -1.2585 -1.1155 4294927872
-6.3375001 0.9005 -0.80550003 4294927872
-4.6355 -1.2565 -1.1065 4294927872
-4.6294999 -1.2645 -1.1005 4294927872
-4.6244998 -1.2704999 -1.0975 4294927872
-4.6285 -1.2665 -1.0895 4294927872
-4.6205001 -1.2755001 -1.0895 4294927872
-4.6385002 -1.2535 -1.0975 4294927872
-4.6345 -1.2585 -1.0915 4294927872
-5.8975 0.3515 -0.98750001 4294927872
-4.6395001 -1.2505 -1.0885 4294927872
-4.6475 -1.2415 -1.1135 4294927872
-4.6545 -1.2325 -1.1135 4294927872
-6.1065001 0.61150002 -1.3904999 4294927872
-4.6434999 -1.2465 -1.1065 4294927872
-4.6494999 -1.2385 -1.1045001 4294927872
-4.6645002 -1.2205 -1.1165 4294927872
-4.6655002 -1.2185 -1.1085 4294927872
-4.6455002 -1.2445 -1.0965 4294927872
-4.6535001 -1.2335 -1.0985 4294927872
-4.6475 -1.2415 -1.0885 4294927872
-4.6595001 -1.2265 -1.1015 4294927872
-4.6655002 -1.2194999 -1.1005 4294927872
-4.6574998 -1.2285 -1.0925 4294927872
-4.6645002 -1.2205 -1.0905 4294927872
-4.6735001 -1.2085 -1.1454999 4294927872
-4.6725001 -1.2095 -1.1365 4294927872
-4.6795001 -1.2005 -1.1404999 4294927872
-5.8555002 0.29749998 -0.8725 4294927872
-4.6884999 -1.1895 -1.1454999 4294927872
-4.6915002 -1.1855 -1.1375 4294927872
-4.6845002 -1.1935 -1.1375 4294927872
-4.6754999 -1.2065001 -1.1295 4294927872
-4.6725001 -1.2105 -1.1215 4294927872
-6.1554999 0.66049999 -0.6085 4294927872
-4.6785002 -1.2015001 -1.1235 4294927872
-4.6894999 -1.1885 -1.1285 4294927872
-6.3705001 0.93949997 -1.3565 4294927872
-4.6834998 -1.1955 -1.1285 4294927872
-4.7045002 -1.1684999 -1.1495 4294927872
-4.7045002 -1.1684999 -1.1375 4294927872
-4.7094998 -1.1625 -1.1445 4294927872
-4.7135 -1.1575 -1.1495 4294927872
-5.8125 0.24349999 -0.97850001 4294927872
-4.7094998 -1.1615 -1.1365 4294927872
-4.7164998 -1.1545 -1.1425 4294927872
-4.7045002 -1.1695 -1.1285 4294927872
-5.6985002 0.098499998 -1.0135 4294927872
-5.9805002 0.45750001 -0.90450001 4294927872
-4.7164998 -1.1535 -1.1325001 4294927872
-4.7084999 -1.1635 -1.1245 4294927872
-6.1975002 0.7245 -0.82050002 4294927872
-6.2624998 0.80549997 -0.89649999 4294927872
-6.3154998 0.8725 -1.0895 4294927872
-4.6985002 -1.1765 -1.1495 4294927872
-4.6985002 -1.1765 -1.1365 4294927872
-4.6945 -1.1805 -1.1285 4294927872
-5.7804999 0.2015 -1.1315 4294927872
-4.7014999 -1.1725 -1.1205 4294927872
-5.8685002 0.31549999 -0.84549999 4294927872
-4.6735001 -1.2085 -1.1135 4294927872
-6.3794999 0.95050001 -1.3515 4294927872
-4.6795001 -1.2005 -1.1105 4294927872
-4.6745 -1.2065001 -1.1055 4294927872
-4.6915002 -1.1855 -1.1145 4294927872
-4.6884999 -1.1895 -1.1065 4294927872
-6.3245001 0.88449997 -0.75050002 4294927872
-4.6845002 -1.1935 -1.1165 4294927872
-5.9225001 0.38150001 -1.1975 4294927872
-5.9724998 0.4465 -1.3325 4294927872
-5.8115001 0.24249999 -1.0615 4294927872
-4.6764998 -1.2045 -1.0965 4294927872
-4.6725001 -1.2105 -1.0915 4294927872
-4.6925001 -1.1845 -1.1005 4294927872
-4.6884999 -1.1885 -1.0944999 4294927872
-6.2034998 0.72750002 -0.6085 4294927872
-4.6805 -1.1985 -1.1015 4294927872
-4.6824999 -1.1965001 -1.0905 4294927872
-6.3185 0.87650001 -1.0745 4294927872
-4.7084999 -1.1625 -1.1165 4294927872
-4.7175002 -1.1525 -1.1174999 4294927872
-4.7055001 -1.1665 -1.1085 4294927872
-4.7135 -1.1575 -1.1095001 4294927872
-4.7045002 -1.1684999 -1.0925 4294927872
-4.7084999 -1.1625 -1.1005 4294927872
-4.7164998 -1.1535 -1.1005 4294927872
-5.6745 0.0735 -0.68849999 4294927872
-4.7104998 -1.1605 -1.0905 4294927872
-4.7154999 -1.1545 -1.0925 4294927872
-5.6985002 0.0995 -1.2015001 4294927872
-6.0574999 0.55049998 -0.87050003 4294927872
-6.0485001 0.53850001 -0.82849997 4294927872
-4.6964998 -1.1785001 -1.1125 4294927872
-4.7024999 -1.1705 -1.1005 4294927872
-4.6975002 -1.1785001 -1.0885 4294927872
-5.7494998 0.1505 -0.6085 4294927872
-4.3195 -1.6565 0.60350001 4294927872
-4.6415 -1.2495 -1.0805 4294927872
-4.6424999 -1.2485 -1.0595 4294927872
-4.6244998 -1.2704999 -1.0825 4294927872
-5.7234998 0.1305 -1.0115 4294927872
-4.6285 -1.2654999 -1.0745 4294927872
-5.9505 0.41749999 -1.3185 4294927872
-4.6215 -1.2735 -1.0735 4294927872
-4.6335001 -1.2595 -1.0825 4294927872
-5.9675002 0.43849999 -1.3105 4294927872
-4.6335001 -1.2595 -1.0725 4294927872
-4.6385002 -1.2525001 -1.0725 4294927872
-6.3344998 0.89749998 -1.3555 4294927872
-4.6255002 -1.2695 -1.0645 4294927872
-6.0774999 0.57450002 -0.94450003 4294927872
-4.6265001 -1.2685 -1.0565 4294927872
-4.6215 -1.2745 -1.0595 4294927872
-4.6335001 -1.2585 -1.0625 4294927872
-6.3185 0.87449998 -1.4265 4294927872
-4.6535001 -1.2335 -1.0875 4294927872
-4.6504998 -1.2365 -1.0805 4294927872
-4.6535001 -1.2345001 -1.0725 4294927872
-6.3325 0.89450002 -1.2015001 4294927872
-6.1114998 0.61650002 -1.2035 4294927872
-4.6634998 -1.2215 -1.0825 4294927872
-4.6564999 -1.2295001 -1.0795 4294927872
-4.6605 -1.2255 -1.0725 4294927872
-4.3214998 -1.6605 0.45249999 4294927872
-4.6444998 -1.2455 -1.0714999 4294927872
-4.6485 -1.2405 -1.0615 4294927872
-4.6545 -1.2335 -1.0625 4294927872
-4.6595001 -1.2255 -1.0645 4294927872
-4.6655002 -1.2185 -1.0714999 4294927872
-4.6595001 -1.2265 -1.0565 4294927872
-4.6655002 -1.2185 -1.0625 4294927872
-5.6504998 0.0385 -1.1615 4294927872
-4.6415 -1.2495 -1.0484999 4294927872
-4.6475 -1.2535 -1.0415 4294927872
-4.6405001 -1.2495 -1.0285 4294927872
-4.6345 -1.2725 -1.0425 4294927872
-4.6345 -1.2645 -1.0445 4294927872
-4.6244998 -1.2695 -1.0465 4294927872
-6.1155 0.62349999 -0.68650001 4294927872
-4.6355 -1.2575001 -1.0484999 4294927872
-6.2154999 0.7475 -0.86650002 4294927872
-5.6624999 0.056499995 -0.87849998 4294927872
-4.6285 -1.2665 -1.0365 4294927872
-4.6285 -1.2665 -1.0245 4294927872
-4.6205001 -1.2755001 -1.0245 4294927872
-6.2915001 0.84249997 -0.69050002 4294927872
-4.6374998 -1.2565 -1.0385 4294927872
-4.6345 -1.2585 -1.0295 4294927872
-6.2424998 0.78149998 -0.66049999 4294927872
-4.6564999 -1.2325 -1.0455 4294927872
-4.6465001 -1.2415 -1.0535001 4294927872
-4.6525002 -1.2355 -1.0545 4294927872
-4.6504998 -1.2455 -1.0405 4294927872
-4.6494999 -1.2375 -1.0455 4294927872
-6.0265002 0.51249999 -0.89050001 4294927872
-4.6645002 -1.2194999 -1.0515 4294927872
-4.6665001 -1.2244999 -1.0445 4294927872
-5.8765001 0.32350001 -1.2605 4294927872
-4.6485 -1.2405 -1.0325 4294927872
-4.6535001 -1.2345001 -1.0375 4294927872
-6.0444999 0.53350002 -1.0005 4294927872
-4.6465001 -1.2424999 -1.0245 4294927872
-4.6545 -1.2335 -1.0275 4294927872
-4.6595001 -1.2265 -1.0365 4294927872
-4.6665001 -1.2185 -1.0365 4294927872
-4.6595001 -1.2265 -1.0245 4294927872
-4.6645002 -1.2205 -1.0275 4294927872
-6.0704999 0.56550002 -1.3815 4294927872
-5.7715001 0.1925 -1.3375 4294927872
-4.6725001 -1.2105 -1.0805 4294927872
-5.8685002 0.3125 -1.0605 4294927872
-4.6785002 -1.2025 -1.0845 4294927872
-4.6774998 -1.2035 -1.0765001 4294927872
-4.6915002 -1.1855 -1.0865 4294927872
-4.6884999 -1.1895 -1.0745 4294927872
-6.0774999 0.57450002 -1.2295001 4294927872
-4.6865001 -1.1914999 -1.0845 4294927872
-4.6824999 -1.1965001 -1.0765001 4294927872
-4.6725001 -1.2095 -1.0714999 4294927872
-4.6774998 -1.2035 -1.0685 4294927872
-4.6754999 -1.2065001 -1.0585001 4294927872
-4.6884999 -1.1885 -1.0645 4294927872
-4.6915002 -1.1845 -1.0575 4294927872
-6.0044999 0.4835 -1.3325 4294927872
-4.6815 -1.1985 -1.0605 4294927872
-4.6855001 -1.1914999 -1.0565 4294927872
-4.7045002 -1.1695 -1.0835 4294927872
-4.7094998 -1.1615 -1.0815001 4294927872
-4.7164998 -1.1525 -1.0845 4294927872
-5.9695001 0.44150001 -1.0005 4294927872
-6.2484999 0.78850001 -0.75450003 4294927872
-4.7125001 -1.1575 -1.0735 4294927872
-4.7055001 -1.1695 -1.0685 4294927872
-4.7094998 -1.1615 -1.0645 4294927872
-4.7164998 -1.1525 -1.0675 4294927872
-4.7055001 -1.1675 -1.0595 4294927872
-4.7164998 -1.1525 -1.0585001 4294927872
-6.0304999 0.51749998 -0.75749999 4294927872
-4.6954999 -1.1795 -1.0805 4294927872
-6.0415001 0.52850002 -1.0645 4294927872
-4.7014999 -1.1734999 -1.0765001 4294927872
-6.0925002 0.59149998 -1.4234999 4294927872
-6.1935 0.71950001 -1.3635 4294927872
-4.6975002 -1.1775 -1.0664999 4294927872
-6.0244999 0.50849998 -1.0005 4294927872
-4.6975002 -1.1775 -1.0575 4294927872
-6.1585002 0.67549998 -1.0825 4294927872
-6.1345 0.64450002 -1.1765 4294927872
-5.6704998 0.065499999 -0.93550003 4294927872
-4.6725001 -1.2095 -1.0484999 4294927872
-4.6795001 -1.2005 -1.0525 4294927872
-4.6824999 -1.2055 -1.0445 4294927872
-4.6884999 -1.1895 -1.0484999 4294927872
-6.1104999 0.61750001 -0.71149999 4294927872
-6.2455001 0.78249997 -1.0055 4294927872
-4.6964998 -1.1845 -1.0445 4294927872
-4.6754999 -1.2125 -1.0395 4294927872
-6.2164998 0.7475 -1.1465 4294927872
-4.6725001 -1.2095 -1.0325 4294927872
-6.2024999 0.7295 -1.2765 4294927872
-6.2265 0.75950003 -1.3985 4294927872
-4.6785002 -1.2025 -1.0315 4294927872
-4.6884999 -1.1895 -1.0355 4294927872
-4.6925001 -1.1845 -1.0285 4294927872
-6.3274999 0.88849998 -0.76050001 4294927872
-4.6834998 -1.1985 -1.0395 4294927872
-4.6834998 -1.1945 -1.0305001 4294927872
-4.3204999 -1.6605 0.1005 4294927872
-4.7045002 -1.1775 -1.0445 4294927872
-4.7125001 -1.1684999 -1.0405 4294927872
-4.7284999 -1.1535 -1.0434999 4294927872
-4.7104998 -1.1625 -1.0545 4294927872
-4.7185001 -1.1525 -1.0505 4294927872
-4.7125001 -1.1605 -1.0465 4294927872
-4.7055001 -1.1665 -1.0365 4294927872
-4.7115002 -1.1605 -1.0355 4294927872
-4.7164998 -1.1535 -1.0345 4294927872
-4.7075 -1.1645 -1.0275 4294927872
-4.7135 -1.1585 -1.0275 4294927872
-6.3074999 0.86250001 -0.82749999 4294927872
-4.7014999 -1.1715 -1.0515 4294927872
-5.9194999 0.3775 -1.2885 4294927872
-4.6964998 -1.1795 -1.0375 4294927872
-4.7005 -1.1734999 -1.0335 4294927872
-6.3385 0.90149999 -1.3275 4294927872
-4.6985002 -1.1765 -1.0255001 4294927872
-5.7515001 0.1665 -1.1265 4294927872
-4.6694999 -1.2135 -1.0255001 4294927872
-4.7375002 -1.1265 -1.1445 4294927872
-6.0355 0.52350003 -0.76249999 4294927872
-4.7424998 -1.1224999 -1.1375 4294927872
-4.7364998 -1.1285 -1.1345 4294927872
-4.7364998 -1.1285 -1.1265 4294927872
-4.7445002 -1.1205 -1.1255 4294927872
-4.7375002 -1.1215 -1.1215 4294927872
-4.7544999 -1.1045001 -1.1465 4294927872
-4.7494998 -1.1105 -1.1485 4294927872
-4.7484999 -1.1135 -1.1404999 4294927872
-4.7605 -1.0985 -1.1475 4294927872
-4.7645001 -1.0915 -1.1475 4294927872
-4.7575002 -1.1015 -1.1375 4294927872
-4.7645001 -1.0925 -1.1375 4294927872
-4.7525001 -1.1085 -1.1325001 4294927872
-4.7525001 -1.1045001 -1.1245 4294927872
-6.3715 0.9425 -0.8915 4294927872
-4.7494998 -1.1135 -1.1265 4294927872
-4.7605 -1.0975 -1.1295 4294927872
-4.7585001 -1.0975 -1.1215 4294927872
-4.7645001 -1.0915 -1.1245 4294927872
-4.7505002 -1.1005 -1.1335 4294927872
-4.7414999 -1.1215 -1.1145 4294927872
-5.9445 0.41350001 -0.76749998 4294927872
-4.7375002 -1.1275001 -1.1055 4294927872
-4.7414999 -1.1255 -1.0975 4294927872
-4.7445002 -1.1205 -1.0895 4294927872
-6.0085001 0.4885 -1.0915 4294927872
-6.3185 0.8775 -0.79750001 4294927872
-4.7544999 -1.1055 -1.1115 4294927872
-4.7484999 -1.1125 -1.1145 4294927872
-4.7375002 -1.1125 -1.1174999 4294927872
-4.7455001 -1.1185 -1.1045001 4294927872
-4.7645001 -1.0925 -1.1135 4294927872
-4.7575002 -1.1005 -1.1045001 4294927872
-4.7665 -1.0905 -1.1045001 4294927872
-4.7465 -1.0995001 -1.1174999 4294927872
-4.7525001 -1.1095001 -1.0985 4294927872
-4.7535 -1.1065 -1.0905 4294927872
-4.7455001 -1.1155 -1.0965 4294927872
-4.7455001 -1.1045001 -1.1035 4294927872
-4.7385001 -1.1105 -1.1015 4294927872
-4.7624998 -1.0955 -1.0965 4294927872
-4.7605 -1.1005 -1.0885 4294927872
-4.8035002 -1.0425 -1.1465 4294927872
-4.8004999 -1.0465 -1.1385 4294927872
-4.8175001 -1.0255001 -1.1475 4294927872
-4.8084998 -1.0355 -1.1445 4294927872
-5.9415002 0.4095 -0.79750001 4294927872
-4.8154998 -1.0265 -1.1375 4294927872
-5.8134999 0.2465 -0.86449999 4294927872
-4.8014998 -1.0455 -1.1295 4294927872
-4.8065 -1.0405 -1.1255 4294927872
-4.8165002 -1.0255001 -1.1245 4294927872
-4.8084998 -1.0365 -1.1335 4294927872
-5.7305002 0.13949999 -0.6085 4294927872
-6.2315001 0.76749998 -1.3845 4294927872
-4.8115001 -1.0315 -1.1225001 4294927872
-4.8035002 -1.0415 -1.1115 4294927872
-4.8175001 -1.0245 -1.1045001 4294927872
-4.8105001 -1.0295 -1.1105 4294927872
-4.8035002 -1.0445 -1.1025 4294927872
-4.8024998 -1.0455 -1.0944999 4294927872
-4.8175001 -1.0245 -1.0944999 4294927872
-4.8084998 -1.0365 -1.1005 4294927872
-4.8095002 -1.0245 -1.1025 4294927872
-4.8115001 -1.0325 -1.0905 4294927872
-6.3474998 0.91149998 -1.2385 4294927872
-4.8065 -1.0395 -1.0905 4294927872
-4.7694998 -1.0855 -1.1445 4294927872
-4.7765002 -1.0775 -1.1445 4294927872
-4.7804999 -1.0725 -1.1375 4294927872
-4.7865 -1.0645 -1.1505001 4294927872
-4.7915001 -1.0585001 -1.1445 4294927872
-4.7855 -1.0635 -1.1375 4294927872
-4.7684999 -1.0865 -1.1325001 4294927872
-4.7744999 -1.0815001 -1.1345 4294927872
-4.7684999 -1.0845 -1.1225001 4294927872
-4.7765002 -1.0795 -1.1255 4294927872
-6.3425002 0.90649998 -0.86449999 4294927872
-4.7744999 -1.0735 -1.1205 4294927872
-4.7845001 -1.0664999 -1.1285 4294927872
-4.7925 -1.0565 -1.1355 4294927872
-6.3515 0.91649997 -0.84250003 4294927872
-6.2865 0.83649999 -1.1415 4294927872
-4.7915001 -1.0595 -1.1275001 4294927872
-5.6304998 0.015499997 -0.8495 4294927872
-4.7965002 -1.0515 -1.1465 4294927872
-4.7934999 -1.0475 -1.1315 4294927872
-4.7965002 -1.0525 -1.1255 4294927872
-5.8734999 0.3215 -1.0315 4294927872
-4.7705002 -1.0845 -1.1115 4294927872
-4.7775002 -1.0755 -1.1095001 4294927872
-6.0634999 0.55650002 -1.1655 4294927872
-4.7855 -1.0575 -1.1195 4294927872
-4.7895002 -1.0615 -1.1125 4294927872
-4.7865 -1.0645 -1.1045001 4294927872
-6.3284998 0.88950002 -1.2915 4294927872
-4.7705002 -1.0845 -1.0995001 4294927872
-5.6605 0.0515 -1.1975 4294927872
-4.7775002 -1.0775 -1.0975 4294927872
-4.7715001 -1.0845 -1.0915 4294927872
-6.2855 0.83450001 -1.0115 4294927872
-4.7795 -1.0745 -1.0895 4294927872
-5.6185002 0.00049999909 -0.95350003 4294927872
-4.7925 -1.0565 -1.1025 4294927872
-6.1764998 0.69849998 -0.83950001 4294927872
-4.7865 -1.0664999 -1.0955 4294927872
-6.3474998 0.92650002 -0.60750002 4294927872
-4.7925 -1.0575 -1.0915 4294927872
-4.7814999 -1.0714999 -1.1025 4294927872
-6.3464999 0.91149998 -1.2865 4294927872
-4.7934999 -1.0545 -1.1105 4294927872
-4.7995 -1.0485001 -1.1095001 4294927872
-6.3534999 0.92049998 -1.0955 4294927872
-5.7325001 0.1425 -1.3685 4294927872
-4.7985001 -1.0515 -1.0995001 4294927872
-5.8445001 0.2825 -1.1215 4294927872
-5.8474998 0.2895 -0.8635 4294927872
-4.7975001 -1.0495 -1.0895 4294927872
-6.1715002 0.6925 -1.3565 4294927872
-4.7375002 -1.1285 -1.0825 4294927872
-4.7414999 -1.1215 -1.0805 4294927872
-4.7385001 -1.1255 -1.0725 4294927872
-4.7364998 -1.1285 -1.0615 4294927872
-4.7414999 -1.1224999 -1.0585001 4294927872
-4.7544999 -1.1055 -1.0805 4294927872
-4.7554998 -1.1045001 -1.0725 4294927872
-4.7505002 -1.1135 -1.0875 4294927872
-4.7474999 -1.1145 -1.0775 4294927872
-5.8944998 0.3475 -0.95649999 4294927872
-4.7605 -1.0985 -1.0805 4294927872
-4.7655001 -1.0925 -1.0875 4294927872
-4.7655001 -1.0925 -1.0765001 4294927872
-5.9775 0.4535 -0.86750001 4294927872
-4.7535 -1.1075 -1.0585001 4294927872
-4.7445002 -1.1174999 -1.0695 4294927872
-6.1935 0.71850002 -0.92250001 4294927872
-5.6444998 0.033499997 -0.72049999 4294927872
-5.7754998 0.1965 -0.95249999 4294927872
-5.8144999 0.2465 -1.3795 4294927872
-5.8204999 0.25150001 -1.2275 4294927872
-4.7474999 -1.1155 -1.0605 4294927872
-4.7605 -1.0985 -1.0705 4294927872
-4.7655001 -1.0925 -1.0685 4294927872
-5.8264999 0.26550001 -0.72750002 4294927872
-5.9105 0.3725 -0.67250001 4294927872
-4.7605 -1.0985 -1.0565 4294927872
-4.7665 -1.0905 -1.0565 4294927872
-4.7364998 -1.1275001 -1.0505 4294927872
-4.7455001 -1.1224999 -1.0445 4294927872
-4.7385001 -1.1295 -1.0395 4294927872
-6.3755002 0.9465 -1.3055 4294927872
-4.7364998 -1.1285 -1.0295 4294927872
-4.7414999 -1.1215 -1.0265 4294927872
-4.7535 -1.1095001 -1.0445 4294927872
-4.7465 -1.1145 -1.0505 4294927872
-4.7575002 -1.1015 -1.0495 4294927872
-4.7674999 -1.0885 -1.0484999 4294927872
-4.7674999 -1.1035 -1.0445 4294927872
-5.9914999 0.46649998 -0.76749998 4294927872
-6.3825002 0.95450002 -1.1174999 4294927872
-4.7614999 -1.0944999 -1.0455 4294927872
-4.7535 -1.1055 -1.0335 4294927872
-4.7544999 -1.1045001 -1.0245 4294927872
-5.7684999 0.1875 -1.2845 4294927872
-4.7494998 -1.1115 -1.0375 4294927872
-4.7465 -1.1145 -1.0305001 4294927872
-4.7624998 -1.0985 -1.0385 4294927872
-4.7645001 -1.0925 -1.0335 4294927872
-4.7674999 -1.0905 -1.0255001 4294927872
-4.8014998 -1.0465 -1.0815001 4294927872
-6.2515001 0.79149997 -1.2775 4294927872
-4.8035002 -1.0425 -1.0745 4294927872
-4.8165002 -1.0255001 -1.0785 4294927872
-5.9765 0.45050001 -1.2345001 4294927872
-4.8125 -1.0315 -1.0825 4294927872
-4.8115001 -1.0345 -1.0725 4294927872
-6.1234999 0.63249999 -1.3065 4294927872
-4.8004999 -1.0465 -1.0655 4294927872
-4.8055 -1.0405 -1.0625 4294927872
-4.8175001 -1.0245 -1.0635 4294927872
-6.0425 0.53250003 -0.77249998 4294927872
-4.8115001 -1.0325 -1.0585001 4294927872
-6.2305002 0.76550001 -1.2965 4294927872
-5.7665 0.18349999 -1.2934999 4294927872
-4.8004999 -1.0465 -1.0555 4294927872
-5.7055001 0.11149999 -0.82550001 4294927872
-4.8045001 -1.0445 -1.0455 4294927872
-4.8165002 -1.0265 -1.0545 4294927872
-4.8175001 -1.0285 -1.0445 4294927872
-4.8084998 -1.0365 -1.0505 4294927872
-5.8985 0.3565 -0.74550003 4294927872
-4.8045001 -1.0434999 -1.0375 4294927872
-4.8004999 -1.0465 -1.0285 4294927872
-4.8045001 -1.0405 -1.0245 4294927872
-4.8175001 -1.0245 -1.0345 4294927872
-4.8165002 -1.0255001 -1.0255001 4294927872
-4.8115001 -1.0365 -1.0395 4294927872
-4.8084998 -1.0345 -1.0295 4294927872
-5.7915001 0.2165 -1.3385 4294927872
-4.7694998 -1.0865 -1.0835 4294927872
-4.7765002 -1.0765001 -1.0805 4294927872
-4.7735 -1.0815001 -1.0745 4294927872
-4.7804999 -1.0725 -1.0745 4294927872
-4.7845001 -1.0685 -1.0865 4294927872
-4.7925 -1.0565 -1.0805 4294927872
-4.7855 -1.0664999 -1.0785 4294927872
-6.1875 0.71249998 -0.84350002 4294927872
-4.7915001 -1.0585001 -1.0725 4294927872
-4.7694998 -1.0855 -1.0664999 4294927872
-4.7765002 -1.0765001 -1.0655 4294927872
-4.7705002 -1.0835 -1.0585001 4294927872
-4.7775002 -1.0775 -1.0575 4294927872
-4.7845001 -1.0675 -1.0695 4294927872
-4.7855 -1.0655 -1.0565 4294927872
-4.7884998 -1.0615 -1.0635 4294927872
-4.7915001 -1.0585001 -1.0565 4294927872
-4.7965002 -1.0535001 -1.0685 4294927872
-4.7865 -1.0775 -1.0445 4294927872
-5.9745002 0.4515 -0.60949999 4294927872
-4.7775002 -1.0765001 -1.0484999 4294927872
-5.9584999 0.42750001 -1.0505 4294927872
-4.7754998 -1.0855 -1.0445 4294927872
-4.7874999 -1.0635 -1.0484999 4294927872
-4.7934999 -1.0655 -1.0405 4294927872
-5.8464999 0.28850001 -0.84750003 4294927872
-4.7925 -1.0565 -1.0465 4294927872
-5.9685001 0.44049999 -1.3855 4294927872
-4.7775002 -1.0805 -1.0385 4294927872
-4.7694998 -1.0845 -1.0325 4294927872
-4.7804999 -1.0725 -1.0365 4294927872
-4.7765002 -1.0765001 -1.0305001 4294927872
-4.7845001 -1.0645 -1.0355 4294927872
-4.7925 -1.0575 -1.0335 4294927872
-6.1205001 0.62849998 -1.2355 4294927872
-4.7855 -1.0655 -1.0245 4294927872
-6.0085001 0.4885 -0.83149999 4294927872
-6.1285 0.63950002 -0.65249997 4294927872
-4.7985001 -1.0505 -1.0445 4294927872
-6.1424999 0.65649998 -1.0785 4294927872
-4.7944999 -1.0525 -1.0265 4294927872
-4.7294998 -1.1365 -1.1485 4294927872
-4.7224998 -1.1454999 -1.1375 4294927872
-4.7284999 -1.1395 -1.1404999 4294927872
-4.7344999 -1.1335 -1.1415 4294927872
-4.7224998 -1.1465 -1.1285 4294927872
-4.7284999 -1.1385 -1.1325001 4294927872
-4.7234998 -1.1445 -1.1205 4294927872
-5.7824998 0.20550001 -1.3875 4294927872
-4.7294998 -1.1375 -1.1235 4294927872
-6.0184999 0.50150001 -1.3175 4294927872
-5.6374998 0.024499997 -1.4125 4294927872
-4.7234998 -1.1445 -1.1115 4294927872
-6.3425002 0.90549999 -1.2225 4294927872
-4.7335 -1.1315 -1.1174999 4294927872
-4.7234998 -1.1445 -1.0985 4294927872
-4.7284999 -1.1365 -1.0985 4294927872
-5.7164998 0.1235 -0.8545 4294927872
-6.0254998 0.50849998 -1.3045 4294927872
-4.7214999 -1.1454999 -1.0905 4294927872
-5.7364998 0.1525 -0.66149998 4294927872
-4.7294998 -1.1285 -1.0995001 4294927872
-5.7564998 0.17749999 -0.7475 4294927872
-4.7325001 -1.1325001 -1.0905 4294927872
-5.8455 0.28349999 -1.1684999 4294927872
-5.6285 0.012499998 -1.3805 4294927872
-6.2554998 0.79949999 -0.69150001 4294927872
-4.7234998 -1.1454999 -1.0815001 4294927872
-6.2164998 0.74849999 -0.95649999 4294927872
-5.7145 0.12549999 -0.69849998 4294927872
-4.7234998 -1.1454999 -1.0725 4294927872
-4.7305002 -1.1375 -1.0765001 4294927872
-4.7185001 -1.1515 -1.0755 4294927872
-4.7234998 -1.1445 -1.0645 4294927872
-4.7305002 -1.1375 -1.0685 4294927872
-4.7224998 -1.1445 -1.0565 4294927872
-4.7284999 -1.1385 -1.0575 4294927872
-5.6244998 0.0074999961 -1.3655 4294927872
-4.7294998 -1.1375 -1.0495 4294927872
-4.7214999 -1.1454999 -1.0465 4294927872
-6.3765001 0.9465 -1.2235 4294927872
-4.7224998 -1.1475 -1.0365 4294927872
-4.7294998 -1.1375 -1.0325 4294927872
-4.7294998 -1.1375 -1.0245 4294927872
-4.7245002 -1.1435 -1.0285 4294927872
-4.7185001 -1.1505001 -1.0245 4294927872
-5.7414999 0.15549999 -1.4145 4294927872
-6.3544998 0.92049998 -1.3565 4294927872
-5.9974999 0.47549999 -1.0135 4294927872
-5.8775001 0.32350001 -0.96249998 4294927872
-5.7214999 0.1285 -1.0655 4294927872
-5.6985002 0.1015 -0.78049999 4294927872
-6.0855002 0.58450001 -1.2505 4294927872
-6.3575001 0.92449999 -1.0085 4294927872
-5.7814999 0.20449999 -0.99550003 4294927872
-5.7195001 0.1305 -0.7335 4294927872
-6.0155001 0.4975 -1.0345 4294927872
-5.7395 0.1505 -1.1465 4294927872
-5.8474998 0.28650001 -1.2505 4294927872
-5.7535 0.1675 -1.0555 4294927872
-6.1995001 0.72649997 -0.9235 4294927872
-5.6975002 0.097499996 -1.0265 4294927872
-6.0044999 0.49149999 -0.6085 4294927872
-5.7605 0.1785 -1.3545001 4294927872
-6.0044999 0.4835 -1.3605 4294927872
-5.6715002 0.066499993 -0.83149999 4294927872
-6.1535001 0.66949999 -1.1435 4294927872
-5.6785002 0.075499997 -1.3435 4294927872
-5.6215 0.00049999909 -1.1765 4294927872
-6.3715 0.94349998 -0.81550002 4294927872
-6.1075001 0.62650001 -0.6085 4294927872
-5.9315 0.39449999 -1.3975 4294927872
-5.6294999 0.013499998 -1.3535 4294927872
-6.2055001 0.73449999 -1.2835 4294927872
-5.8245001 0.26049998 -0.83050001 4294927872
-5.9345002 0.4025 -0.77950001 4294927872
-5.7305002 0.1415 -1.4035 4294927872
-6.0535002 0.54350001 -1.3975 4294927872
-5.8755002 0.32749999 -0.71750003 4294927872
-5.7535 0.1705 -0.78850001 4294927872
-5.8125 0.24249999 -1.0455 4294927872
-5.9635 0.4395 -0.67949998 4294927872
-5.6195002 0.00049999909 -0.94450003 4294927872
-4.4815001 -1.4565001 -1.4275 4294927872
-4.4875002 -1.4495 -1.4265 4294927872
-4.4935002 -1.4414999 -1.4275 4294927872
-6.1304998 0.6415 -0.76249999 4294927872
-4.4815001 -1.4565001 -1.4095 4294927872
-4.4875002 -1.4485 -1.4175 4294927872
-4.4885001 -1.4464999 -1.4085 4294927872
-4.4935002 -1.4405 -1.4105 4294927872
-4.5174999 -1.4095 -1.4275 4294927872
-4.5124998 -1.4145 -1.4175 4294927872
-4.5174999 -1.4085 -1.4155 4294927872
-4.5135002 -1.4125 -1.4085 4294927872
-6.0764999 0.57450002 -0.7895 4294927872
-6.2075 0.73650002 -1.0125 4294927872
-5.7294998 0.1375 -1.1715 4294927872
-4.4974999 -1.4355 -1.4225 4294927872
-4.5044999 -1.4305 -1.4175 4294927872
-4.4984999 -1.4345 -1.4135 4294927872
-5.7775002 0.19750001 -1.1565 4294927872
-4.5085001 -1.4205 -1.4215 4294927872
-4.5085001 -1.4205 -1.4125 4294927872
-5.8315001 0.26550001 -1.1385 4294927872
-5.9155002 0.37349999 -1.3085001 4294927872
-6.3864999 0.95850003 -1.1975 4294927872
-6.2765002 0.82349998 -1.4215 4294927872
-6.2765002 0.8265 -0.6085 4294927872
-5.6195002 0.00049999909 -1.2875 4294927872
-4.4184999 -1.5285 -1.5025001 4294927872
-4.4245 -1.5345 -1.4885 4294927872
-4.4194999 -1.5295 -1.4945 4294927872
-6.0035 0.48249999 -0.9375 4294927872
-4.4184999 -1.5285 -1.4855 4294927872
-5.8214998 0.25349998 -1.1684999 4294927872
-6.1285 0.6365 -1.2934999 4294927872
-5.9485002 0.41249999 -1.1555001 4294927872
-5.6595001 0.053499997 -0.74349999 4294927872
-5.9315 0.39449999 -1.4175 4294927872
-6.2874999 0.83749998 -1.3465 4294927872
-6.2265 0.76050001 -1.1805 4294927872
-6.0565 0.5485 -0.88150001 4294927872
-5.8794999 0.32749999 -1.0335 4294927872
-5.8874998 0.34149998 -0.79449999 4294927872
-6.0844998 0.58350003 -0.7985 4294927872
-5.9805002 0.45550001 -1.0885 4294927872
-6.0485001 0.53750002 -0.88950002 4294927872
-5.7354999 0.1445 -1.0664999 4294927872
-6.1075001 0.61250001 -0.81349999 4294927872
-6.2905002 0.84149998 -1.1885 4294927872
-5.9184999 0.38150001 -0.67650002 4294927872
-4.4654999 -1.4765 -1.4265 4294927872
-4.4575 -1.4765 -1.4245 4294927872
-5.7915001 0.2175 -0.94150001 4294927872
-4.4685001 -1.4725 -1.4195 4294927872
-4.4645 -1.4785 -1.4125 4294927872
-4.4565001 -1.4755 -1.4155 4294927872
-4.4734998 -1.4665 -1.4245 4294927872
-4.4784999 -1.4595 -1.4175 4294927872
-4.4724998 -1.4685 -1.4135 4294927872
-4.4755001 -1.4625 -1.4085 4294927872
-5.7705002 0.19049999 -1.2495 4294927872
-6.3255 0.88550001 -1.3245 4294927872
-6.2845001 0.83349997 -0.76249999 4294927872
-6.0155001 0.49649999 -0.99449998 4294927872
-5.8065 0.23549999 -1.0605 4294927872
-6.2224998 0.75550002 -0.85350001 4294927872
-6.3515 0.91649997 -1.2815 4294927872
-6.0395002 0.53350002 -0.65450001 4294927872
-5.6345 0.019499999 -1.3724999 4294927872
-5.9945002 0.46649998 -0.71149999 4294927872
-6.3035002 0.85650003 -0.86449999 4294927872
-5.8705001 0.3175 -0.9005 4294927872
-5.9984999 0.4765 -1.0365 4294927872
-6.3825002 0.95550001 -0.82950002 4294927872
-5.7884998 0.21349999 -0.98949999 4294927872
-5.7065001 0.1095 -1.0595 4294927872
-5.8065 0.23549999 -1.3765 4294927872
-5.6834998 0.080499999 -1.0475 4294927872
-5.6205001 0.00049999909 -1.2685 4294927872
-5.9305 0.39649999 -0.65549999 4294927872
-5.8414998 0.28150001 -0.86449999 4294927872
-5.9365001 0.39750001 -1.1835001 4294927872
-4.3185 -1.6555001 0.62150002 4294927872
-6.3534999 0.93650001 -0.6505 4294927872
-6.1215 0.62949997 -0.89850003 4294927872
-5.9045 0.35949999 -1.3865 4294927872
-5.8455 0.28749999 -0.82550001 4294927872
-6.1304998 0.63950002 -1.3695 4294927872
-5.8525 0.29350001 -1.2945 4294927872
-5.6434999 0.031499997 -0.84850001 4294927872
-4.3245001 -1.6635 0.26550001 4294927872
-5.6925001 0.098499998 -0.6085 4294927872
-6.3734999 0.94550002 -0.92650002 4294927872
-5.9264998 0.38749999 -1.3045 4294927872
-5.8344998 0.2845 -0.73049998 4294927872
-5.7985001 0.2325 -0.65750003 4294927872
-5.7954998 0.2225 -0.84350002 4294927872
-6.0755 0.57249999 -1.0815001 4294927872
-5.7905002 0.22049999 -0.64850003 4294927872
-5.8635001 0.3055 -1.4234999 4294927872
-6.1655002 0.68449998 -1.0635 4294927872
-5.8024998 0.2305 -1.3185 4294927872
-6.0504999 0.54250002 -0.83950001 4294927872
-5.7564998 0.1715 -1.1055 4294927872
-5.8635001 0.3075 -1.4025 4294927872
-6.1545 0.66949999 -1.1155 4294927872
-6.3734999 0.9465 -0.69450003 4294927872
-5.6205001 0.0014999986 -1.1935 4294927872
-4.5454998 -1.3735 -1.4265 4294927872
-5.9045 0.34849998 -0.60949999 4294927872
-4.5504999 -1.3665 -1.4275 4294927872
-4.5695 -1.3444999 -1.4295 4294927872
-4.5625 -1.3515 -1.4245 4294927872
-4.5454998 -1.3724999 -1.4184999 4294927872
-4.5535002 -1.3625 -1.4205 4294927872
-4.5454998 -1.3735 -1.4085 4294927872
-5.8975 0.3545 -0.7245 4294927872
-5.7954998 0.22049999 -0.9795 4294927872
-4.5535002 -1.3615 -1.4095 4294927872
-4.5665002 -1.3465 -1.4165 4294927872
-4.5634999 -1.3495001 -1.4085 4294927872
-4.5295 -1.3935 -1.4285001 4294927872
-4.5225 -1.4015 -1.4265 4294927872
-4.5365 -1.3885 -1.4295 4294927872
-5.8315001 0.27250001 -0.7155 4294927872
-4.5395002 -1.3805 -1.4275 4294927872
-4.5304999 -1.3925 -1.4195 4294927872
-4.5304999 -1.3925 -1.4115 4294927872
-4.5244999 -1.4005001 -1.4184999 4294927872
-4.5215001 -1.4025 -1.4095 4294927872
-6.0745001 0.57249999 -0.7155 4294927872
-4.5355 -1.3855 -1.4184999 4294927872
-5.9625001 0.43650001 -0.7755 4294927872
-5.8295002 0.26449999 -1.3345 4294927872
-4.5935001 -1.3135 -1.4285001 4294927872
-4.5844998 -1.3225 -1.4265 4294927872
-4.5774999 -1.3315001 -1.4125 4294927872
-4.5805001 -1.3275 -1.4215 4294927872
-4.5895 -1.3164999 -1.4165 4294927872
-6.3794999 0.95050001 -1.0245 4294927872
-4.5825 -1.3255 -1.4105 4294927872
-4.5904999 -1.3135 -1.4085 4294927872
-4.5704999 -1.3405 -1.4215 4294927872
-4.5695 -1.3405 -1.4115 4294927872
-4.6015 -1.3035001 -1.4285001 4294927872
-5.6515002 0.041499998 -0.93650001 4294927872
-4.5955 -1.3095 -1.4175 4294927872
-4.6034999 -1.2965 -1.4225 4294927872
-4.6005001 -1.3015 -1.4165 4294927872
-6.1574998 0.67449999 -1.1505001 4294927872
-5.7814999 0.2085 -0.70749998 4294927872
-5.6634998 0.042499997 -0.6085 4294927872
-5.9495001 0.41949999 -0.83950001 4294927872
-6.1925001 0.71749997 -0.93049997 4294927872
-6.1485 0.66250002 -1.0095 4294927872
-6.3505001 0.91549999 -1.1325001 4294927872
-6.0844998 0.58450001 -0.82849997 4294927872
-6.1475 0.66250002 -1.0255001 4294927872
-6.0295 0.5165 -0.6505 4294927872
-5.9974999 0.4745 -1.3005 4294927872
-5.7795 0.2025 -0.94050002 4294927872
-5.9924998 0.47150001 -0.70550001 4294927872
-5.9245 0.3845 -1.0385 4294927872
-5.8245001 0.25850001 -1.2645 4294927872
-6.0054998 0.48750001 -0.75450003 4294927872
-5.7895002 0.2155 -1.4145 4294927872
-6.1764998 0.69749999 -0.92049998 4294927872
-6.0275002 0.51249999 -1.3975 4294927872
-5.8204999 0.25749999 -0.75349998 4294927872
-6.0095 0.4885 -1.0785 4294927872
-6.1025 0.60649997 -1.1285 4294927872
-6.1605 0.67750001 -1.3674999 4294927872
-6.0005002 0.47749999 -0.96350002 4294927872
-6.1574998 0.67449999 -0.97350001 4294927872
-5.9045 0.36249998 -0.74550003 4294927872
-6.1595001 0.67750001 -0.75150001 4294927872
-5.7255001 0.1345 -1.1365 4294927872
-6.1615 0.68049997 -1.3855 4294927872
-5.7645001 0.1885 -0.66149998 4294927872
-5.8105001 0.2405 -1.2635 4294927872
-5.6605 0.0515 -0.94749999 4294927872
-5.8825002 0.33250001 -0.8635 4294927872
-5.8915 0.34349999 -0.93049997 4294927872
-4.4905 -1.4445 -1.4005001 4294927872
-4.4815001 -1.4555 -1.3965 4294927872
-4.4875002 -1.4475 -1.3935 4294927872
-4.4815001 -1.4575 -1.3855 4294927872
-4.4945002 -1.4405 -1.3915 4294927872
-5.9714999 0.4465 -0.83149999 4294927872
-4.4854999 -1.4505 -1.3835 4294927872
-4.4914999 -1.4425 -1.3805 4294927872
-4.5145001 -1.4135 -1.4005001 4294927872
-4.5174999 -1.4085 -1.3945 4294927872
-6.1444998 0.65749997 -1.1245 4294927872
-4.5124998 -1.4165 -1.3885 4294927872
-4.5165 -1.4095 -1.3805 4294927872
-4.5044999 -1.4275 -1.4075 4294927872
-4.5005002 -1.4325 -1.3975 4294927872
-4.4955001 -1.4375 -1.4015 4294927872
-5.9235001 0.38749999 -0.75650001 4294927872
-4.5085001 -1.4205 -1.4045 4294927872
-4.5085001 -1.4195 -1.3954999 4294927872
-5.7364998 0.14650001 -1.2435 4294927872
-4.4994998 -1.4325 -1.3885 4294927872
-5.8505001 0.29049999 -1.1055 4294927872
-4.4965 -1.4365 -1.3775001 4294927872
-4.5044999 -1.4305 -1.3815 4294927872
-4.5075002 -1.4225 -1.3795 4294927872
-4.5114999 -1.4155 -1.3785 4294927872
-4.4805002 -1.4575 -1.3745 4294927872
-4.4815001 -1.4565001 -1.3645 4294927872
-4.4875002 -1.4495 -1.3745 4294927872
-4.4914999 -1.4425 -1.3724999 4294927872
-4.4864998 -1.4485 -1.3605 4294927872
-4.4924998 -1.4414999 -1.3625 4294927872
-4.4815001 -1.4565001 -1.3535 4294927872
-4.4864998 -1.4485 -1.3485 4294927872
-4.4935002 -1.4405 -1.3515 4294927872
-5.7335 0.14549999 -0.76749998 4294927872
-4.5145001 -1.4125 -1.3705 4294927872
-4.5184999 -1.4085 -1.3645 4294927872
-4.5124998 -1.4145 -1.3615 4294927872
-4.5184999 -1.4085 -1.3525 4294927872
-4.4974999 -1.4375 -1.3685 4294927872
-4.5075002 -1.4265 -1.3655 4294927872
-4.5095 -1.4195 -1.3715 4294927872
-4.4974999 -1.4355 -1.3585 4294927872
-5.8484998 0.28749999 -1.0664999 4294927872
-4.4984999 -1.4345 -1.3485 4294927872
-6.3435001 0.90750003 -0.79449999 4294927872
-4.5075002 -1.4215 -1.3585 4294927872
-4.5064998 -1.4225 -1.3485 4294927872
-4.4805002 -1.4565001 -1.3425 4294927872
-4.4815001 -1.4565001 -1.3325 4294927872
-4.4854999 -1.4515001 -1.3375 4294927872
-4.4914999 -1.4435 -1.3435 4294927872
-5.9165001 0.37549999 -1.2225 4294927872
-4.4905 -1.4445 -1.3325 4294927872
-5.8845 0.32249999 -0.60949999 4294927872
-4.4805002 -1.4575 -1.3155 4294927872
-4.4844999 -1.4525 -1.3255 4294927872
-5.9835 0.46250001 -0.75849998 4294927872
-4.4914999 -1.4425 -1.3245 4294927872
-4.4895 -1.4475 -1.3185 4294927872
-4.4935002 -1.4405 -1.3155 4294927872
-4.5135002 -1.4125 -1.3425 4294927872
-4.5184999 -1.4085 -1.3365 4294927872
-4.5124998 -1.4165 -1.3355 4294927872
-4.5135002 -1.4125 -1.3285 4294927872
-4.5124998 -1.4165 -1.3164999 4294927872
-4.5174999 -1.4085 -1.3195 4294927872
-5.9295001 0.39050001 -1.2165 4294927872
-4.5044999 -1.4305 -1.3405 4294927872
-4.4984999 -1.4345 -1.3325 4294927872
-5.6244998 0.0064999969 -0.9425 4294927872
-4.5064998 -1.4315 -1.3315001 4294927872
-4.5075002 -1.4215 -1.3395 4294927872
-4.5075002 -1.4335001 -1.3214999 4294927872
-4.4974999 -1.4355 -1.3235 4294927872
-4.5035 -1.4285001 -1.3164999 4294927872
-6.1694999 0.68849999 -1.0855 4294927872
-4.4805002 -1.4575 -1.2985001 4294927872
-4.4844999 -1.4515001 -1.3115 4294927872
-4.4924998 -1.4414999 -1.3075 4294927872
-4.4875002 -1.4485 -1.3035001 4294927872
-4.4815001 -1.4575 -1.2865 4294927872
-4.4854999 -1.4525 -1.2915 4294927872
-6.2255001 0.76050001 -0.72750002 4294927872
-4.4914999 -1.4445 -1.2934999 4294927872
-4.4864998 -1.4485 -1.2835 4294927872
-4.4924998 -1.4414999 -1.2835 4294927872
-5.6475 0.034499999 -1.1885 4294927872
-4.5135002 -1.4135 -1.3065 4294927872
-4.5135002 -1.4125 -1.2925 4294927872
-4.5145001 -1.4135 -1.2805001 4294927872
-4.4994998 -1.4325 -1.3075 4294927872
-4.5075002 -1.4255 -1.3065 4294927872
-6.2824998 0.83050001 -1.3495001 4294927872
-4.5075002 -1.4265 -1.2975 4294927872
-5.9404998 0.40450001 -1.2335 4294927872
-4.4965 -1.4365 -1.2925 4294927872
-6.2715001 0.81650001 -1.2225 4294927872
-4.5025001 -1.4295 -1.2885 4294927872
-4.4994998 -1.4335001 -1.2815 4294927872
-4.5075002 -1.4265 -1.2805001 4294927872
-4.5064998 -1.4225 -1.2895 4294927872
-4.4685001 -1.4725 -1.4075 4294927872
-4.4645 -1.4775 -1.3975 4294927872
-4.4524999 -1.4725 -1.4035 4294927872
-4.4575 -1.4785 -1.3935 4294927872
-6.3505001 0.91649997 -0.94849998 4294927872
-4.4654999 -1.4775 -1.3895 4294927872
-6.2154999 0.7475 -1.3335 4294927872
-4.4654999 -1.4775 -1.3775001 4294927872
-4.4575 -1.4775 -1.3845 4294927872
-4.4575 -1.4785 -1.3765 4294927872
-4.4685001 -1.4735 -1.3705 4294927872
-6.0665002 0.5625 -0.75650001 4294927872
-4.4555001 -1.4765 -1.3685 4294927872
-4.4635 -1.4795001 -1.3665 4294927872
-6.3445001 0.9095 -1.0235 4294927872
-4.4664998 -1.4765 -1.3525 4294927872
-4.4645 -1.4775 -1.3444999 4294927872
-4.4594998 -1.4785 -1.3595001 4294927872
-4.4534998 -1.4735 -1.3525 4294927872
-5.7105002 0.1195 -0.66750002 4294927872
-4.4734998 -1.4675 -1.4025 4294927872
-5.8495002 0.29449999 -0.74250001 4294927872
-4.4724998 -1.4705 -1.3945 4294927872
-6.2284999 0.76349998 -1.2485 4294927872
-4.4724998 -1.4665 -1.3875 4294927872
-4.4734998 -1.4665 -1.3785 4294927872
-5.6475 0.036499996 -1.3245 4294927872
-6.0475001 0.53750002 -1.3105 4294927872
-6.2905002 0.8405 -1.0805 4294927872
-4.4745002 -1.4655 -1.3674999 4294927872
-4.4724998 -1.4685 -1.3595001 4294927872
-4.4765 -1.4615 -1.3595001 4294927872
-4.4734998 -1.4665 -1.3495001 4294927872
-6.0095 0.4885 -1.3365 4294927872
-6.2765002 0.82450002 -0.6645 4294927872
-6.2845001 0.8355 -0.70249999 4294927872
-6.0035 0.4815 -0.6085 4294927872
-5.6865001 0.0845 -1.2835 4294927872
-6.1475 0.66149998 -1.0535001 4294927872
-5.7484999 0.1675 -0.68849999 4294927872
-6.3455 0.91049999 -1.1195 4294927872
-5.7754998 0.1945 -1.1665 4294927872
-5.9825001 0.45649999 -1.0655 4294927872
-6.1725001 0.6925 -1.3805 4294927872
-4.4685001 -1.4735 -1.3365 4294927872
-5.8004999 0.22849999 -0.96750003 4294927872
-4.4575 -1.4785 -1.3405 4294927872
-4.4625001 -1.4795001 -1.3325 4294927872
-4.4545002 -1.4765 -1.3325 4294927872
-4.4645 -1.4785 -1.3235 4294927872
-4.4685001 -1.4745001 -1.3125 4294927872
-4.4555001 -1.4775 -1.3205 4294927872
-4.4604998 -1.4775 -1.3135 4294927872
-4.4685001 -1.4735 -1.3025 4294927872
-4.4625001 -1.4785 -1.3055 4294927872
-4.4524999 -1.4725 -1.3115 4294927872
-4.4565001 -1.4745001 -1.3005 4294927872
-4.4625001 -1.4795001 -1.2965 4294927872
-4.4675002 -1.4745001 -1.2905 4294927872
-4.4685001 -1.4735 -1.2815 4294927872
-4.4594998 -1.4785 -1.2885 4294927872
-6.2605 0.80250001 -0.9145 4294927872
-4.4745002 -1.4645 -1.3405 4294927872
-4.4714999 -1.4694999 -1.3295 4294927872
-4.4775 -1.4645 -1.3255 4294927872
-4.4745002 -1.4645 -1.3145 4294927872
-4.4705 -1.4705 -1.3195 4294927872
-6.0795002 0.57550001 -1.0925 4294927872
-5.7245002 0.13249999 -1.2305 4294927872
-6.2975001 0.85049999 -1.1995 4294927872
-4.4755001 -1.4665 -1.3055 4294927872
-6.1075001 0.61250001 -0.73150003 4294927872
-6.0365 0.52249998 -1.3115 4294927872
-4.4724998 -1.4675 -1.2945 4294927872
-4.4755001 -1.4655 -1.2855 4294927872
-5.7424998 0.1585 -0.76450002 4294927872
-5.8474998 0.2895 -0.7985 4294927872
-5.8614998 0.30849999 -0.77149999 4294927872
-6.3575001 0.92449999 -1.2335 4294927872
-5.9184999 0.37549999 -1.1355 4294927872
-6.2985001 0.85049999 -1.1755 4294927872
-5.9935002 0.4655 -0.97149998 4294927872
-5.6424999 0.030499998 -1.3405 4294927872
-6.2835002 0.83249998 -0.88550001 4294927872
-5.8095002 0.24249999 -0.60949999 4294927872
-4.5485001 -1.3685 -1.4005001 4294927872
-5.7424998 0.1675 -0.70550001 4294927872
-4.5465002 -1.3715 -1.3925 4294927872
-4.5555 -1.3605 -1.3975 4294927872
-6.0114999 0.49149999 -1.0675 4294927872
-4.5675001 -1.3444999 -1.4035 4294927872
-6.0035 0.48449999 -0.79949999 4294927872
-4.5615001 -1.3515 -1.3995 4294927872
-6.1465001 0.66049999 -1.1695 4294927872
-4.5654998 -1.3465 -1.3925 4294927872
-6.2575002 0.79949999 -1.3825001 4294927872
-4.5545001 -1.3615 -1.3895 4294927872
-4.5504999 -1.3665 -1.3845 4294927872
-4.5444999 -1.3735 -1.3765 4294927872
-4.5625 -1.3505 -1.3815 4294927872
-4.5665002 -1.3444999 -1.3775001 4294927872
-4.5574999 -1.3575 -1.3825001 4294927872
-4.5524998 -1.3635 -1.3745 4294927872
-5.6785002 0.075499997 -1.4165 4294927872
-4.5444999 -1.3735 -1.3655 4294927872
-4.5524998 -1.3635 -1.3635 4294927872
-4.5634999 -1.3495001 -1.3715 4294927872
-4.5605001 -1.3535 -1.3625 4294927872
-6.1275001 0.63550001 -1.3365 4294927872
-4.5574999 -1.3575 -1.3715 4294927872
-6.2135 0.74349999 -1.0785 4294927872
-4.5444999 -1.3735 -1.3555 4294927872
-4.5504999 -1.3665 -1.3545001 4294927872
-4.5454998 -1.3724999 -1.3444999 4294927872
-5.8204999 0.25349998 -0.9005 4294927872
-4.5514998 -1.3655 -1.3465 4294927872
-4.5675001 -1.3444999 -1.3575 4294927872
-4.5615001 -1.3515 -1.3525 4294927872
-6.2674999 0.81050003 -0.99650002 4294927872
-4.5625 -1.3515 -1.3444999 4294927872
-4.5675001 -1.3444999 -1.3444999 4294927872
-4.5565 -1.3575 -1.3545001 4294927872
-4.5285001 -1.3945 -1.3985 4294927872
-5.9654999 0.43650001 -0.9425 4294927872
-4.5225 -1.4025 -1.3925 4294927872
-6.1374998 0.64850003 -1.3935 4294927872
-4.5345001 -1.3855 -1.4075 4294927872
-6.3734999 0.94449997 -1.0735 4294927872
-4.5345001 -1.3865 -1.3975 4294927872
-4.5295 -1.3945 -1.3875 4294927872
-5.8785 0.32449999 -1.0625 4294927872
-4.5215001 -1.4025 -1.3795 4294927872
-4.5355 -1.3845 -1.3895 4294927872
-4.5314999 -1.3895 -1.3815 4294927872
-4.5395002 -1.3805 -1.3815 4294927872
-4.5285001 -1.3954999 -1.3645 4294927872
-4.5225 -1.4015 -1.3665 4294927872
-4.5355 -1.3855 -1.3755 4294927872
-4.5395002 -1.3795 -1.3695 4294927872
-4.5345001 -1.3865 -1.3674999 4294927872
-6.3565001 0.9235 -1.4165 4294927872
-4.5304999 -1.3925 -1.3515 4294927872
-4.5225 -1.4015 -1.3585 4294927872
-5.7674999 0.1865 -0.92049998 4294927872
-4.5244999 -1.4015 -1.3455 4294927872
-4.5324998 -1.3895 -1.3595001 4294927872
-4.5384998 -1.3805 -1.3565 4294927872
-4.5355 -1.3845 -1.3465 4294927872
-4.5795002 -1.3295 -1.3975 4294927872
-4.5844998 -1.3225 -1.4015 4294927872
-5.7575002 0.1735 -1.3715 4294927872
-4.5855002 -1.3214999 -1.3925 4294927872
-4.5914998 -1.3125 -1.3935 4294927872
-4.5764999 -1.3325 -1.3875 4294927872
-4.5764999 -1.3325 -1.3795 4294927872
-4.5925002 -1.3125 -1.3805 4294927872
-5.8385 0.27649999 -1.0405 4294927872
-4.5855002 -1.3214999 -1.3805 4294927872
-5.8544998 0.29449999 -1.1355 4294927872
-5.9645 0.43650001 -0.86650002 4294927872
-4.5725002 -1.3375 -1.4015 4294927872
-6.3724999 0.94349998 -0.86949998 4294927872
-4.5704999 -1.3395 -1.3904999 4294927872
-5.6795001 0.080499999 -0.65350002 4294927872
-4.5955 -1.3085001 -1.4045 4294927872
-4.6015 -1.3015 -1.4075 4294927872
-5.7895002 0.2155 -0.97250003 4294927872
-4.6015 -1.3005 -1.3945 4294927872
-4.5984998 -1.3055 -1.3885 4294927872
-4.6044998 -1.2965 -1.3855 4294927872
-4.5974998 -1.3055 -1.3805 4294927872
-4.6025 -1.3005 -1.3765 4294927872
-4.5795002 -1.3285 -1.3695 4294927872
-4.5784998 -1.3305 -1.3605 4294927872
-4.5925002 -1.3125 -1.3635 4294927872
-4.5885 -1.3175 -1.3695 4294927872
-4.5844998 -1.3235 -1.3645 4294927872
-4.5795002 -1.3285 -1.3515 4294927872
-4.5925002 -1.3125 -1.3495001 4294927872
-4.5875001 -1.3175 -1.3585 4294927872
-6.1634998 0.68049997 -1.1555001 4294927872
-5.6424999 0.0295 -1.0095 4294927872
-4.5725002 -1.3375 -1.3724999 4294927872
-6.2645001 0.80650002 -1.2315 4294927872
-4.5735002 -1.3365 -1.3515 4294927872
-5.8055 0.23549999 -1.2735 4294927872
-4.5955 -1.3085001 -1.3705 4294927872
-4.6005001 -1.3015 -1.3655 4294927872
-5.8515 0.2915 -1.3135 4294927872
-4.5974998 -1.3065 -1.3575 4294927872
-5.9945002 0.46950001 -0.96450001 4294927872
-4.6025 -1.3005 -1.3545001 4294927872
-4.6025 -1.3005 -1.3444999 4294927872
-6.1135001 0.61949998 -1.0375 4294927872
-4.5555 -1.3605 -1.3405 4294927872
-4.5475001 -1.3705 -1.3335 4294927872
-4.5535002 -1.3625 -1.3285 4294927872
-4.5685 -1.3444999 -1.3365 4294927872
-4.5605001 -1.3535 -1.3355 4294927872
-4.5625 -1.3495001 -1.3285 4294927872
-6.2665 0.80949998 -1.0895 4294927872
-4.5454998 -1.3724999 -1.3214999 4294927872
-5.9324999 0.39449999 -1.0215 4294927872
-4.5545001 -1.3605 -1.3185 4294927872
-4.5495 -1.3674999 -1.3125 4294927872
-4.5625 -1.3515 -1.3205 4294927872
-4.5675001 -1.3444999 -1.3225 4294927872
-4.5634999 -1.3485 -1.3125 4294927872
-6.2395 0.77749997 -0.84149998 4294927872
-4.5444999 -1.3735 -1.3105 4294927872
-4.5444999 -1.3735 -1.3025 4294927872
-5.6535001 0.043499999 -1.2915 4294927872
-4.5535002 -1.3625 -1.3025 4294927872
-4.5675001 -1.3444999 -1.3045 4294927872
-4.5615001 -1.3525 -1.3025 4294927872
-4.5565 -1.3585 -1.3095 4294927872
-4.3195 -1.6595 0.38549998 4294927872
-4.5444999 -1.3735 -1.2945 4294927872
-6.1345 0.64649999 -1.3265001 4294927872
-5.7094998 0.1135 -1.4045 4294927872
-4.5545001 -1.3615 -1.2945 4294927872
-4.5495 -1.3674999 -1.2925 4294927872
-4.5495 -1.3685 -1.2845 4294927872
-4.5545001 -1.3615 -1.2815 4294927872
-5.9724998 0.4465 -1.2905 4294927872
-4.5605001 -1.3535 -1.2915 4294927872
-4.5675001 -1.3444999 -1.2905 4294927872
-4.5615001 -1.3525 -1.2835 4294927872
-4.5304999 -1.3925 -1.3375 4294927872
-4.5304999 -1.3925 -1.3295 4294927872
-4.5235 -1.4005001 -1.3365 4294927872
-4.5415001 -1.3785 -1.3385 4294927872
-6.0654998 0.55849999 -1.1255 4294927872
-4.5345001 -1.3855 -1.3345 4294927872
-4.5425 -1.3765 -1.3305 4294927872
-4.5295 -1.3935 -1.3214999 4294927872
-4.5225 -1.4035 -1.3275 4294927872
-5.8045001 0.2325 -1.3055 4294927872
-4.5215001 -1.4025 -1.3145 4294927872
-4.5374999 -1.3845 -1.3265001 4294927872
-5.9765 0.4515 -0.97850001 4294927872
-6.3575001 0.92449999 -0.90350002 4294927872
-4.5395002 -1.3795 -1.3205 4294927872
-4.5345001 -1.3865 -1.3175 4294927872
-4.5295 -1.3935 -1.3115 4294927872
-4.5304999 -1.3925 -1.3025 4294927872
-4.5215001 -1.4035 -1.3065 4294927872
-5.6574998 0.048500001 -0.83050001 4294927872
-5.8835001 0.3335 -1.2285 4294927872
-4.5244999 -1.4005001 -1.2995 4294927872
-4.5184999 -1.4065 -1.2965 4294927872
-4.5365 -1.3845 -1.3085001 4294927872
-4.5405002 -1.3805 -1.2995 4294927872
-4.5285001 -1.3945 -1.2945 4294927872
-4.5285001 -1.3935 -1.2865 4294927872
-5.6655002 0.063499995 -0.69550002 4294927872
-6.2785001 0.82450002 -1.1065 4294927872
-4.5205002 -1.4055001 -1.2865 4294927872
-4.5235 -1.3995 -1.2805001 4294927872
-4.5345001 -1.3865 -1.2945 4294927872
-5.7595 0.17649999 -0.95749998 4294927872
-6.1985002 0.72549999 -1.1545 4294927872
-4.5405002 -1.3785 -1.2885 4294927872
-6.1255002 0.63249999 -1.2855 4294927872
-4.5335002 -1.3875 -1.2815 4294927872
-6.0875001 0.58749998 -1.3444999 4294927872
-6.0984998 0.5995 -1.3845 4294927872
-4.5425 -1.3765 -1.2805001 4294927872
-6.0064998 0.48649999 -1.3085001 4294927872
-4.5774999 -1.3315001 -1.3415 4294927872
-4.5764999 -1.3325 -1.3335 4294927872
-4.5925002 -1.3125 -1.3385 4294927872
-4.5855002 -1.3214999 -1.3415 4294927872
-4.5815001 -1.3265001 -1.3365 4294927872
-4.5855002 -1.3205 -1.3325 4294927872
-4.5815001 -1.3265001 -1.3285 4294927872
-5.7125001 0.1195 -0.86949998 4294927872
-4.5784998 -1.3295 -1.3214999 4294927872
-4.5844998 -1.3235 -1.3205 4294927872
-4.5895 -1.3164999 -1.3235 4294927872
-4.5865002 -1.3195 -1.3135 4294927872
-6.2564998 0.7985 -0.79650003 4294927872
-4.5714998 -1.3385 -1.3285 4294927872
-4.5725002 -1.3375 -1.3164999 4294927872
-4.5984998 -1.3045 -1.3365 4294927872
-6.3674998 0.93849999 -0.84450001 4294927872
-4.5935001 -1.3105 -1.3305 4294927872
-4.6025 -1.3005 -1.3285 4294927872
-4.6055002 -1.2945 -1.3375 4294927872
-4.5955 -1.3085001 -1.3225 4294927872
-5.7645001 0.1815 -1.0135 4294927872
-4.6015 -1.3015 -1.3205 4294927872
-4.5935001 -1.3115 -1.3145 4294927872
-5.8594999 0.30250001 -1.2995 4294927872
-4.6044998 -1.2955 -1.3135 4294927872
-4.5764999 -1.3325 -1.3115 4294927872
-4.5795002 -1.3285 -1.3025 4294927872
-5.7715001 0.1945 -0.8175 4294927872
-4.5875001 -1.3195 -1.3055 4294927872
-4.5834999 -1.3245 -1.2965 4294927872
-4.5764999 -1.3325 -1.2925 4294927872
-4.5774999 -1.3315001 -1.2845 4294927872
-4.5844998 -1.3214999 -1.2885 4294927872
-4.5844998 -1.3225 -1.2805001 4294927872
-4.5895 -1.3164999 -1.2845 4294927872
-6.3765001 0.94749999 -1.2075 4294927872
-4.5725002 -1.3375 -1.3065 4294927872
-4.5714998 -1.3385 -1.2975 4294927872
-4.5704999 -1.3405 -1.2815 4294927872
-4.5974998 -1.3045 -1.3095 4294927872
-4.5935001 -1.3105 -1.3055 4294927872
-4.6025 -1.2985001 -1.3055 4294927872
-4.5935001 -1.3105 -1.2965 4294927872
-4.6005001 -1.3025 -1.2975 4294927872
-4.6015 -1.3005 -1.2885 4294927872
-4.5964999 -1.3065 -1.2855 4294927872
-4.6065001 -1.2955 -1.2934999 4294927872
-6.0355 0.52249998 -1.0975 4294927872
-5.8534999 0.29949999 -0.69050002 4294927872
-5.9165001 0.37549999 -1.3825001 4294927872
-6.0654998 0.55849999 -0.95649999 4294927872
-5.6215 0.00049999909 -1.1075 4294927872
-5.8565001 0.3035 -0.74949998 4294927872
-5.9285002 0.3915 -0.9795 4294927872
-5.9784999 0.4535 -1.2455 4294927872
-6.0955 0.59750003 -1.0515 4294927872
-5.9505 0.41850001 -0.85549998 4294927872
-6.0714998 0.5675 -0.78049999 4294927872
-5.9404998 0.40549999 -1.3305 4294927872
-5.7455001 0.1585 -1.3225 4294927872
-5.7474999 0.1635 -0.91350001 4294927872
-5.7965002 0.22149999 -1.2895 4294927872
-6.0165 0.4975 -1.0635 4294927872
-5.7414999 0.15349999 -1.0595 4294927872
-5.9254999 0.3865 -1.2405 4294927872
-5.7905002 0.21950001 -0.82950002 4294927872
-6.2845001 0.83349997 -0.75349998 4294927872
-6.0105 0.49149999 -1.1555001 4294927872
-6.2855 0.8355 -1.2895 4294927872
