# .PCD v0.7 - Point Cloud Data file format
VERSION 0.7
FIELDS x y z rgb
SIZE 4 4 4 4
TYPE F F F U
COUNT 1 1 1 1
WIDTH 1169
HEIGHT 1
VIEWPOINT 0 0 0 1 0 0 0
POINTS 1169
DATA ascii
-6.7694998 0.51249999 0.38350001 4294928076
-6.5825 0.2775 0.059499998 4294928076
-6.4875002 0.1565 -0.39950001 4294928076
-6.4815001 0.1485 0.47850001 4294928076
-4.8645 -1.9095 0.011499997 4294928076
-4.6515002 -2.1775 0.87049997 4294928076
-6.5725002 0.26550001 -0.30950001 4294928076
-5.3214998 -1.3235 0.87449998 4294928076
-6.4825001 0.14749999 0.4885 4294928076
-6.8264999 0.58450001 0.79250002 4294928076
-5.3505001 -1.2875 0.85949999 4294928076
-6.6005001 0.30050001 0.27250001 4294928076
-6.6834998 0.40450001 0.090499997 4294928076
-4.9835 -1.7545 0.3565 4294928076
-5.3355002 -1.3105 0.81849998 4294928076
-5.4365001 -1.1835001 0.91750002 4294928076
-6.6935 0.4165 0.41249999 4294928076
-6.4765 0.1435 -0.49450001 4294928076
-5.3825002 -1.2535 0.7665 4294928076
-6.4635 0.1275 -0.45050001 4294928076
-6.6055002 0.3035 0.50550002 4294928076
-4.9274998 -1.8275 0.2035 4294928076
-4.9285002 -1.8214999 0.69150001 4294928076
-4.6485 -2.1805 0.9515 4294928076
-6.7465 0.48049998 -0.39750001 4294928076
-6.8065 0.55449998 -0.41550002 4294928076
-6.6025 0.30149999 0.19849999 4294928076
-6.6704998 0.3865 0.15349999 4294928076
-5.6564999 -0.90350002 0.89950001 4294928076
-6.5265002 0.20550001 0.60649997 4294928076
-6.4324999 0.088500001 -0.016500004 4294928076
-6.5324998 0.21349999 0.27950001 4294928076
-6.3975 0.043499999 -0.1155 4294928076
-6.0625 -0.38949999 0.92949998 4294928076
-5.3734999 -1.2625 0.80250001 4294928076
-5.7045002 -0.84250003 0.8545 4294928076
-5.4794998 -1.1295 0.94950002 4294928076
-6.5795002 0.27250001 -0.1185 4294928076
-6.8055 0.55949998 0.9145 4294928076
-4.8885002 -1.8745 0.7525 4294928076
-6.3924999 0.036499996 0.4975 4294928076
-6.4724998 0.13949999 -0.25650001 4294928076
-5.3385 -1.3065 0.9145 4294928076
-6.4924998 0.1635 -0.34850001 4294928076
-6.5955 0.2915 0.71249998 4294928076
-6.5605001 0.2485 0.49950001 4294928076
-6.4864998 0.15349999 0.75150001 4294928076
-4.7934999 -1.9965 0.70050001 4294928076
-6.7505002 0.48750001 0.036499999 4294928076
-4.7084999 -2.1055 0.70649999 4294928076
-4.9705 -1.7715 0.22149999 4294928076
-4.6964998 -2.1194999 0.76749998 4294928076
-6.4645 0.1265 0.28850001 4294928076
-5.0815001 -1.6315 0.81849998 4294928076
-4.8175001 -1.9655 0.79750001 4294928076
-4.6174998 -2.2195001 0.90350002 4294928076
-6.5904999 0.28650001 -0.093500003 4294928076
-5.7954998 -0.73049998 0.93550003 4294928076
-6.5335002 0.2115 0.90249997 4294928076
-6.8225002 0.57849997 0.36950001 4294928076
-6.8195 0.57349998 -0.038500004 4294928076
-4.9124999 -1.8495001 0.0385 4294928076
-6.3804998 0.022499999 0.52350003 4294928076
-6.5745001 0.2665 0.077500001 4294928076
-4.7795 -2.0144999 0.58349997 4294928076
-6.5935001 0.29049999 -0.1725 4294928076
-4.7965002 -1.9915 0.71350002 4294928076
-6.6665001 0.38049999 -0.33050001 4294928076
-6.5844998 0.27849999 0.62650001 4294928076
-5.3915 -1.2395 0.83249998 4294928076
-6.4485002 0.1085 -0.1665 4294928076
-6.2744999 -0.1185 0.94449997 4294928076
-6.5784998 0.27149999 0.2755 4294928076
-6.6915002 0.4145 0.4955 4294928076
-6.6915002 0.41150001 -0.26750001 4294928076
-6.7965002 0.54250002 -0.44350001 4294928076
-5.3614998 -1.2765 0.8915 4294928076
-4.8794999 -1.8895 0.92949998 4294928076
-6.8295002 0.58649999 0.13149999 4294928076
-6.6694999 0.38749999 -0.46349999 4294928076
-6.8125 0.56449997 -0.29949999 4294928076
-5.6865001 -0.86449999 0.83950001 4294928076
-6.5574999 0.2445 -0.44350001 4294928076
-4.9495001 -1.7965 0.57550001 4294928076
-4.9664998 -1.7775 0.23649999 4294928076
-6.5075002 0.1805 0.3075 4294928076
-4.9565001 -1.7905 0.062499996 4294928076
-6.6405001 0.3495 0.52149999 4294928076
-6.4864998 0.15349999 0.60049999 4294928076
-5.6675 -0.89249998 0.94950002 4294928076
-6.6504998 0.36249998 0.34650001 4294928076
-4.7874999 -2.0074999 0.1635 4294928076
-6.5774999 0.26949999 0.93349999 4294928076
-6.5935001 0.2915 0.047499999 4294928076
-4.9155002 -1.8425 0.1235 4294928076
-4.8835001 -1.8805 0.69349998 4294928076
-6.8175001 0.58149999 -0.6085 4294928076
-6.3705001 0.0034999978 0.47749999 4294928076
-6.6155 0.31650001 0.78750002 4294928076
-6.6535001 0.3655 0.49149999 4294928076
-6.8195 0.57550001 0.3515 4294928076
-6.5425 0.2245 -0.45449999 4294928076
-6.0945001 -0.34650001 0.84350002 4294928076
-6.5124998 0.1885 0.2165 4294928076
-6.6125002 0.31349999 0.74949998 4294928076
-6.4074998 0.057500001 -0.1235 4294928076
-6.5615001 0.24949999 -0.2405 4294928076
-6.5984998 0.29749998 0.39750001 4294928076
-5.5784998 -0.99550003 0.89349997 4294928076
-6.8315001 0.5905 -0.046500001 4294928076
-6.3274999 -0.045500003 0.87049997 4294928076
-6.7715001 0.5165 0.33950001 4294928076
-4.8855 -1.8775001 0.54049999 4294928076
-6.4994998 0.1735 0.074499995 4294928076
-6.5425 0.2245 0.4725 4294928076
-6.6735001 0.39249998 0.39050001 4294928076
-6.7855 0.53250003 0.068499997 4294928076
-6.2845001 -0.10550001 0.9095 4294928076
-4.6945 -2.1235001 0.91350001 4294928076
-6.7055001 0.4325 0.41150001 4294928076
-4.8334999 -1.9455 0.77749997 4294928076
-5.8474998 -0.6595 0.80849999 4294928076
-6.4565001 0.1175 0.0074999994 4294928076
-4.8154998 -1.9715 0.0024999974 4294928076
-4.7934999 -2.0005 0.13149999 4294928076
-4.9724998 -1.7685 0.24349999 4294928076
-6.6044998 0.3035 -0.2595 4294928076
-4.9495001 -1.7965 0.53249997 4294928076
-4.9495001 -1.8005 0.014499997 4294928076
-6.5374999 0.2185 0.36250001 4294928076
-4.8235002 -1.9615 0.0495 4294928076
-6.6525002 0.3635 0.55650002 4294928076
-4.8445001 -1.9345 0.079499997 4294928076
-5.8445001 -0.66250002 0.81650001 4294928076
-6.5415001 0.2255 0.43450001 4294928076
-6.4035001 0.052499998 0.0955 4294928076
-5.7895002 -0.7335 0.82950002 4294928076
-5.1345 -1.5655 0.93849999 4294928076
-5.2494998 -1.4175 0.81650001 4294928076
-6.2005 -0.21250001 0.91250002 4294928076
-6.6764998 0.39449999 0.6455 4294928076
-5.1834998 -1.5105 0.76550001 4294928076
-5.5155001 -1.0825 0.8955 4294928076
-5.1585002 -1.5335 0.90649998 4294928076
-6.5324998 0.2115 0.72549999 4294928076
-6.3864999 0.031499997 -0.3985 4294928076
-4.6164999 -2.2205 0.77749997 4294928076
-4.8385 -1.9385 0.68650001 4294928076
-6.4155002 0.066499993 0.26449999 4294928076
-6.4905 0.1565 0.9465 4294928076
-4.6975002 -2.1185 0.6925 4294928076
-6.5725002 0.26249999 0.86750001 4294928076
-4.9695001 -1.7725 0.3795 4294928076
-6.5974998 0.29550001 0.26550001 4294928076
-6.7305002 0.46349999 0.88749999 4294928076
-4.8404999 -1.9375 0.35949999 4294928076
-4.9965 -1.7375 0.78750002 4294928076
-6.6515002 0.3635 0.77350003 4294928076
-4.8515 -1.9245 0.94349998 4294928076
-4.9724998 -1.7665 0.42949998 4294928076
-4.9815001 -1.7555 0.55049998 4294928076
-6.3905001 0.033499997 0.41949999 4294928076
-5.0475001 -1.6914999 0.7665 4294928076
-6.3955002 0.0385 0.73250002 4294928076
-4.7045002 -2.1105001 0.80150002 4294928076
-6.7544999 0.49149999 -0.0125 4294928076
-4.9625001 -1.7815 0.34450001 4294928076
-6.2105002 -0.1965 0.82450002 4294928076
-6.3955002 0.037499998 0.81550002 4294928076
-4.9784999 -1.7605 0.2895 4294928076
-4.9724998 -1.7715 0.86150002 4294928076
-4.9155002 -1.8395 0.72750002 4294928076
-6.6135001 0.31650001 0.077500001 4294928076
-5.1055002 -1.6005 0.85250002 4294928076
-6.4155002 0.067500003 -0.34450001 4294928076
-4.8084998 -1.9785 0.88849998 4294928076
-5.2925 -1.3635 0.87449998 4294928076
-5.5795002 -1.0015 0.9145 4294928076
-4.9605002 -1.7815 0.6225 4294928076
-4.8645 -1.9045 0.66049999 4294928076
-6.4524999 0.1135 0.1365 4294928076
-6.5974998 0.29350001 -0.41049999 4294928076
-6.4085002 0.056499995 0.60149997 4294928076
-4.7484999 -2.0545001 0.69849998 4294928076
-5.3365002 -1.3085001 0.82749999 4294928076
-4.6415 -2.1895001 0.92149997 4294928076
-6.3905001 0.0385 -0.50950003 4294928076
-4.8245001 -1.9605 0.1105 4294928076
-6.5634999 0.25049999 -0.4885 4294928076
-4.8065 -1.9825 0.38549998 4294928076
-6.4045 0.0515 0.3265 4294928076
-6.4514999 0.1105 0.093499996 4294928076
-5.2255001 -1.4495 0.90249997 4294928076
-4.9115 -1.8475 0.2685 4294928076
-6.5695 0.25850001 -0.4305 4294928076
-6.8074999 0.55849999 -0.1735 4294928076
-6.3744998 0.014499998 0.55150002 4294928076
-5.7785001 -0.74650002 0.89050001 4294928076
-6.5755 0.2665 -0.5485 4294928076
-6.8035002 0.55449998 0.090499997 4294928076
-6.8245001 0.57950002 -0.089500003 4294928076
-5.1894999 -1.4955 0.90549999 4294928076
-6.6904998 0.41049999 -0.31150001 4294928076
-4.8594999 -1.9165 0.083499998 4294928076
-6.6265001 0.33149999 0.13949999 4294928076
-6.6424999 0.35249999 0.32749999 4294928076
-5.9394999 -0.54149997 0.76950002 4294928076
-6.8095002 0.56349999 0.46950001 4294928076
-4.6824999 -2.1385 0.78750002 4294928076
-4.8814998 -1.8875 0.1455 4294928076
-6.7435002 0.47749999 -0.27650002 4294928076
-6.6504998 0.36149999 -0.16150001 4294928076
-6.6005001 0.29749998 0.5395 4294928076
-5.6335001 -0.93349999 0.8495 4294928076
-4.9384999 -1.8125 0.29550001 4294928076
-6.7975001 0.54750001 0.11149999 4294928076
-6.5064998 0.1815 -0.41049999 4294928076
-6.7445002 0.4815 0.56349999 4294928076
-4.6545 -2.1735001 0.79350001 4294928076
-5.9445 -0.5395 0.94550002 4294928076
-6.5524998 0.23649999 0.79250002 4294928076
-4.9315 -1.8195 0.52950001 4294928076
-6.2005 -0.2105 0.8125 4294928076
-5.7395 -0.7985 0.90350002 4294928076
-6.5644999 0.2525 -0.43349999 4294928076
-6.6855001 0.40650001 -0.069499999 4294928076
-4.7954998 -1.9955 0.5205 4294928076
-6.7564998 0.49450001 -0.0625 4294928076
-6.7614999 0.5025 0.39449999 4294928076
-6.7744999 0.51950002 0.4655 4294928076
-6.7925 0.54250002 0.63349998 4294928076
-6.4045 0.0515 0.3035 4294928076
-6.7895002 0.5395 0.85049999 4294928076
-5.6704998 -0.88450003 0.85649997 4294928076
-6.7135 0.44350001 0.93849999 4294928076
-6.7435002 0.47749999 -0.1035 4294928076
-6.4905 0.1605 0.051499996 4294928076
-6.3685002 0.0054999972 0.1165 4294928076
-4.9594998 -1.7835 0.78249997 4294928076
-4.9165001 -1.8425 0.91049999 4294928076
-4.7725 -2.0165 0.0385 4294928076
-6.8255 0.57950002 -0.0425 4294928076
-5.4384999 -1.1805 0.9005 4294928076
-6.5155001 0.19149999 0.4725 4294928076
-4.8705001 -1.8995 0.3985 4294928076
-6.3534999 -0.016500002 0.78549999 4294928076
-6.6995001 0.42250001 -0.20550001 4294928076
-5.0514998 -1.6695 0.88050002 4294928076
-6.6985002 0.42250001 0.6045 4294928076
-6.6385002 0.3475 0.2455 4294928076
-6.0324998 -0.42449999 0.79049999 4294928076
-6.7245002 0.45750001 0.92949998 4294928076
-6.4955001 0.1655 0.48050001 4294928076
-6.5555 0.2405 0.93049997 4294928076
-6.7785001 0.52450001 0.3075 4294928076
-6.5225 0.2005 0.0014999977 4294928076
-6.6374998 0.34549999 0.58950001 4294928076
-6.3264999 -0.051500004 0.85149997 4294928076
-6.8144999 0.56949997 0.74449998 4294928076
-6.5454998 0.22749999 0.91549999 4294928076
-4.9864998 -1.7385 0.83950001 4294928076
-5.2835002 -1.3745 0.84549999 4294928076
-6.5095 0.18449999 -0.23649999 4294928076
-5.0625 -1.6535 0.79049999 4294928076
-6.5035 0.1785 0.046500001 4294928076
-6.4864998 0.15549999 -0.3775 4294928076
-6.4825001 0.1495 0.33050001 4294928076
-6.7954998 0.54449999 -0.0085000023 4294928076
-6.5914998 0.2895 0.086499996 4294928076
-5.5395002 -1.0505 0.8915 4294928076
-5.9885001 -0.48050001 0.85649997 4294928076
-6.5235 0.2015 -0.50449997 4294928076
-6.4264998 0.081500001 -0.54949999 4294928076
-6.6605 0.37149999 -0.36149999 4294928076
-5.9124999 -0.57749999 0.78249997 4294928076
-5.6865001 -0.85949999 0.88849998 4294928076
-6.4584999 0.1205 0.22049999 4294928076
-6.4115 0.061499998 0.2895 4294928076
-6.7674999 0.51050001 0.94050002 4294928076
-5.3744998 -1.2735 0.76550001 4294928076
-6.7305002 0.4605 -0.29050002 4294928076
-6.6075001 0.30649999 0.85049999 4294928076
-6.4464998 0.1055 0.15349999 4294928076
-4.8505001 -1.9265 0.2985 4294928076
-4.6034999 -2.2375 0.7615 4294928076
-6.0644999 -0.38350001 0.79750001 4294928076
-6.7544999 0.49349999 0.1285 4294928076
-4.9495001 -1.7955 0.59450001 4294928076
-6.7375002 0.46849999 -0.38949999 4294928076
-6.7765002 0.52249998 0.72149998 4294928076
-6.5314999 0.2115 -0.53649998 4294928076
-6.3744998 0.016499996 -0.2165 4294928076
-6.5495 0.23649999 0.083499998 4294928076
-4.7905002 -2.0035 0.0175 4294928076
-6.4355001 0.092500001 -0.60250002 4294928076
-4.6255002 -2.2095001 0.84750003 4294928076
-4.9155002 -1.8405 0.57749999 4294928076
-5.3115001 -1.3395 0.81150001 4294928076
-4.9565001 -1.7905 0.0275 4294928076
-4.9165001 -1.8405 0.31150001 4294928076
-6.8225002 0.57450002 -0.4835 4294928076
-6.6975002 0.42050001 -0.093500003 4294928076
-6.4105 0.062499996 -0.49250001 4294928076
-6.3905001 0.036499996 -0.083500005 4294928076
-6.5425 0.2245 0.78049999 4294928076
-6.3804998 0.024499997 -0.40349999 4294928076
-4.7895002 -2.0025001 0.52450001 4294928076
-5.6195002 -0.95450002 0.95450002 4294928076
-5.7975001 -0.7245 0.86250001 4294928076
-5.3134999 -1.3385 0.86049998 4294928076
-6.7605 0.50050002 0.15449999 4294928076
-5.2595 -1.4055001 0.81550002 4294928076
-4.8585 -1.9135 0.5395 4294928076
-6.7585001 0.49649999 -0.3585 4294928076
-4.7284999 -2.0785 0.78850001 4294928076
-6.8175001 0.5715 -0.1045 4294928076
-5.9175 -0.5715 0.87449998 4294928076
-6.3134999 -0.054500002 0.87049997 4294928076
-5.5984998 -0.97549999 0.89649999 4294928076
-6.0335002 -0.4235 0.86750001 4294928076
-4.9765 -1.7645 0.047499999 4294928076
-6.6815 0.40149999 0.018499998 4294928076
-6.6055002 0.30250001 -0.40549999 4294928076
-4.9495001 -1.7965 0.73549998 4294928076
-6.7474999 0.48249999 -0.056500003 4294928076
-6.7455001 0.4815 0.25150001 4294928076
-5.2325001 -1.4414999 0.9325 4294928076
-6.6935 0.4165 0.32249999 4294928076
-6.6574998 0.37149999 -0.087499999 4294928076
-6.1815 -0.2395 0.94849998 4294928076
-4.8965001 -1.8635 0.76550001 4294928076
-4.7205 -2.0905001 0.88450003 4294928076
-4.9724998 -1.7685 0.1415 4294928076
-5.2525001 -1.4135 0.87650001 4294928076
-6.1545 -0.26950002 0.82050002 4294928076
-4.9464998 -1.8035001 0.045499999 4294928076
-4.9315 -1.8205 0.59750003 4294928076
-6.7055001 0.43149999 0.94449997 4294928076
-5.2024999 -1.4785 0.87349999 4294928076
-6.3874998 0.032499999 0.039499998 4294928076
-6.5685 0.25850001 0.1895 4294928076
-6.7824998 0.5255 -0.4465 4294928076
-5.7034998 -0.84250003 0.76550001 4294928076
-6.6205001 0.32550001 0.39949998 4294928076
-4.8315001 -1.9505 0.20549999 4294928076
-4.8534999 -1.9225 0.89349997 4294928076
-6.6995001 0.42449999 0.75849998 4294928076
-5.4245 -1.1975 0.8955 4294928076
-5.1485 -1.5465 0.86549997 4294928076
-6.8344998 0.5905 -0.53250003 4294928076
-4.8325 -1.9485 0.91949999 4294928076
-6.5904999 0.28650001 0.38150001 4294928076
-6.7115002 0.4375 0.032499999 4294928076
-5.7275 -0.81349999 0.8725 4294928076
-4.8855 -1.8815 0.16849999 4294928076
-6.7814999 0.52450001 -0.35050002 4294928076
-6.5475001 0.2325 -0.44049999 4294928076
-6.7224998 0.4535 0.56950003 4294928076
-6.7224998 0.45449999 0.85549998 4294928076
-4.8734999 -1.8945 0.44749999 4294928076
-4.6945 -2.1235001 0.92449999 4294928076
-4.7855 -2.0114999 0.032499999 4294928076
-5.5685 -1.0145 0.79350001 4294928076
-4.7364998 -2.0685 0.74650002 4294928076
-6.2075 -0.2025 0.87949997 4294928076
-4.6195002 -2.2165 0.8215 4294928076
-5.5475001 -1.0405 0.79549998 4294928076
-4.8664999 -1.9035 0.79949999 4294928076
-5.7814999 -0.74449998 0.85549998 4294928076
-6.2884998 -0.097500004 0.82050002 4294928076
-6.4825001 0.1495 0.28549999 4294928076
-5.2944999 -1.3645 0.94349998 4294928076
-6.3944998 0.0385 0.58749998 4294928076
-4.9534998 -1.7915 0.68949997 4294928076
-5.7234998 -0.81849998 0.8585 4294928076
-6.5265002 0.20449999 -0.41150001 4294928076
-6.6135001 0.31349999 -0.5025 4294928076
-5.8235002 -0.69150001 0.92250001 4294928076
-5.1665001 -1.5235 0.8265 4294928076
-6.4425001 0.097499996 0.8125 4294928076
-4.7414999 -2.0634999 0.71450001 4294928076
-6.6224999 0.3265 0.4285 4294928076
-4.7804999 -2.0155001 0.054499995 4294928076
-5.0665002 -1.6475 0.77850002 4294928076
-4.8295002 -1.9535 0.2475 4294928076
-6.4675002 0.1295 0.72850001 4294928076
-5.1265001 -1.5745 0.87849998 4294928076
-6.6055002 0.30450001 0.15349999 4294928076
-6.5475001 0.2325 -0.2895 4294928076
-6.5984998 0.29449999 -0.44549999 4294928076
-6.0135002 -0.44949999 0.78649998 4294928076
-6.5784998 0.27250001 -0.1365 4294928076
-5.1104999 -1.5935 0.81650001 4294928076
-6.5675001 0.25850001 0.11149999 4294928076
-4.8715 -1.8975 0.58349997 4294928076
-6.6795001 0.39750001 -0.1935 4294928076
-4.9115 -1.8444999 0.72149998 4294928076
-6.5114999 0.1865 0.60949999 4294928076
-6.6494999 0.35949999 -0.26050001 4294928076
-4.8944998 -1.8705 0.2755 4294928076
-6.7414999 0.47850001 0.78850001 4294928076
-6.4955001 0.1655 0.60649997 4294928076
-4.9825001 -1.7555 0.4905 4294928076
-6.4454999 0.1025 0.52649999 4294928076
-6.7585001 0.49849999 0.14049999 4294928076
-6.5174999 0.1935 -0.34650001 4294928076
-6.7585001 0.49649999 -0.2545 4294928076
-6.4485002 0.1075 0.5575 4294928076
-4.9054999 -1.8555 0.2375 4294928076
-6.0974998 -0.34549999 0.93550003 4294928076
-4.7795 -2.0174999 0.93550003 4294928076
-6.4565001 0.1185 -0.22050001 4294928076
-6.4745002 0.13949999 -0.1595 4294928076
-5.9784999 -0.49650002 0.95050001 4294928076
-6.6185002 0.3215 0.80250001 4294928076
-6.1545 -0.2705 0.87849998 4294928076
-6.3755002 0.014499998 0.4535 4294928076
-4.8645 -1.9065 0.52149999 4294928076
-6.7395 0.47049999 -0.38049999 4294928076
-5.7895002 -0.73449999 0.90749997 4294928076
-4.8175001 -1.9675 0.9095 4294928076
-4.8715 -1.8995 0.1595 4294928076
-4.9435 -1.8035001 0.76249999 4294928076
-6.7905002 0.5345 -0.56550002 4294928076
-6.5735002 0.26550001 0.2185 4294928076
-6.7034998 0.42750001 -0.2165 4294928076
-4.8484998 -1.9295 0.0004999981 4294928076
-6.7275 0.45750001 -0.1105 4294928076
-5.4404998 -1.1755 0.7895 4294928076
-5.2474999 -1.4205 0.87550002 4294928076
-6.7635002 0.50449997 0.2115 4294928076
-6.5605001 0.24949999 -0.080499999 4294928076
-4.9594998 -1.7855 0.17649999 4294928076
-6.6455002 0.35749999 -0.46349999 4294928076
-4.7494998 -2.0455 0.65750003 4294928076
-4.8175001 -1.9655 0.45649999 4294928076
-5.7725 -0.75550002 0.79350001 4294928076
-5.5834999 -0.99449998 0.8035 4294928076
-6.4914999 0.16149999 -0.46450001 4294928076
-6.7094998 0.4375 0.2895 4294928076
-6.0415001 -0.41350001 0.92049998 4294928076
-6.8065 0.55949998 0.1865 4294928076
-6.7424998 0.47350001 -0.44350001 4294928076
-6.4235001 0.075499997 0.52350003 4294928076
-5.4305 -1.1885 0.76849997 4294928076
-6.3705001 0.0024999983 -0.46450001 4294928076
-4.8074999 -1.9805 0.39949998 4294928076
-4.8195 -1.9625 0.74049997 4294928076
-6.6754999 0.3935 0.84750003 4294928076
-4.9375 -1.8125 0.80549997 4294928076
-6.0254998 -0.4355 0.9235 4294928076
-6.4454999 0.10349999 0.1155 4294928076
-4.8245001 -1.9555 0.6875 4294928076
-5.7255001 -0.81449997 0.82349998 4294928076
-4.8655 -1.9105 -0.50550002 4294928076
-4.8664999 -1.9095 -0.4975 4294928076
-4.8804998 -1.8904999 -0.50550002 4294928076
-4.8814998 -1.8904999 -0.4975 4294928076
-4.8734999 -1.8995 -0.50849998 4294928076
-4.8734999 -1.9005001 -0.50050002 4294928076
-4.8655 -1.9105 -0.48950002 4294928076
-4.8685002 -1.9075 -0.48050001 4294928076
-4.8804998 -1.8915 -0.48950002 4294928076
-6.7564998 0.49349999 -0.3265 4294928076
-4.8835001 -1.8885 -0.4815 4294928076
-4.8765001 -1.8985 -0.49149999 4294928076
-4.8705001 -1.9035 -0.49349999 4294928076
-4.8724999 -1.9015 -0.48449999 4294928076
-4.8965001 -1.8705 -0.50449997 4294928076
-4.9064999 -1.8585 -0.50849998 4294928076
-4.9015002 -1.8655 -0.49849999 4294928076
-4.9085002 -1.8585 -0.4975 4294928076
-4.8994999 -1.8685 -0.4905 4294928076
-4.8985 -1.8685 -0.48050001 4294928076
-4.9064999 -1.8585 -0.48550001 4294928076
-4.8895001 -1.8805 -0.50150001 4294928076
-4.8885002 -1.8805 -0.49349999 4294928076
-4.8944998 -1.8735 -0.49450001 4294928076
-4.8664999 -1.9085 -0.4725 4294928076
-4.8695002 -1.9075 -0.46450001 4294928076
-4.8835001 -1.8885 -0.4725 4294928076
-4.8765001 -1.8975 -0.47350001 4294928076
-4.8645 -1.9125 -0.45449999 4294928076
-4.8705001 -1.9045 -0.45250002 4294928076
-4.8835001 -1.8885 -0.46349999 4294928076
-4.8804998 -1.8915 -0.4515 4294928076
-4.8765001 -1.8965 -0.46250001 4294928076
-4.8965001 -1.8724999 -0.46450001 4294928076
-4.9045 -1.8635 -0.47350001 4294928076
-4.9004998 -1.8655 -0.46450001 4294928076
-4.9085002 -1.8565 -0.46950001 4294928076
-4.9085002 -1.8565 -0.45649999 4294928076
-4.8994999 -1.8705 -0.45550001 4294928076
-4.9015002 -1.8645 -0.44850001 4294928076
-4.8885002 -1.8815 -0.4795 4294928076
-4.8934999 -1.8755 -0.47749999 4294928076
-4.8895001 -1.8805 -0.4655 4294928076
-6.4974999 0.16949999 0.3105 4294928076
-6.8055 0.55849999 0.30250001 4294928076
-4.8885002 -1.8815 -0.45649999 4294928076
-4.8924999 -1.8765 -0.4515 4294928076
-4.9295001 -1.8295 -0.50449997 4294928076
-4.9315 -1.8255 -0.49649999 4294928076
-4.9285002 -1.8305 -0.48950002 4294928076
-4.9334998 -1.8245 -0.48649999 4294928076
-4.9454999 -1.8085001 -0.51050001 4294928076
-4.9445 -1.8085001 -0.49849999 4294928076
-4.9384999 -1.8175 -0.50550002 4294928076
-4.9394999 -1.8155 -0.4975 4294928076
-4.9534998 -1.7985001 -0.50749999 4294928076
-4.9565001 -1.7925 -0.50050002 4294928076
-4.9514999 -1.7995 -0.49950001 4294928076
-4.9435 -1.8105 -0.48950002 4294928076
-4.9394999 -1.8164999 -0.48550001 4294928076
-4.9435 -1.8105 -0.48050001 4294928076
-4.9495001 -1.8035001 -0.48950002 4294928076
-4.9555001 -1.7965 -0.48950002 4294928076
-4.9505 -1.8005 -0.4815 4294928076
-4.9575 -1.7925 -0.4815 4294928076
-4.9305 -1.8275 -0.47850001 4294928076
-4.9285002 -1.8305 -0.46850002 4294928076
-4.9295001 -1.8285 -0.45449999 4294928076
-4.9445 -1.8085001 -0.4655 4294928076
-4.9365001 -1.8195 -0.47850001 4294928076
-4.9404998 -1.8145 -0.47350001 4294928076
-5.0654998 -1.6495 0.81949997 4294928076
-4.9394999 -1.8164999 -0.4655 4294928076
-4.9334998 -1.8225 -0.46950001 4294928076
-4.9475002 -1.8055 -0.47549999 4294928076
-4.9514999 -1.8005 -0.46850002 4294928076
-4.9575 -1.7945 -0.47150001 4294928076
-4.9445 -1.8085001 -0.4535 4294928076
-4.9365001 -1.8195 -0.45649999 4294928076
-4.9394999 -1.8145 -0.44949999 4294928076
-4.9505 -1.8005 -0.45750001 4294928076
-4.9575 -1.7945 -0.46250001 4294928076
-4.9565001 -1.7925 -0.45449999 4294928076
-4.9155002 -1.8485 -0.50449997 4294928076
-4.9204998 -1.8405 -0.50650001 4294928076
-4.9134998 -1.8485 -0.49649999 4294928076
-4.9204998 -1.8415 -0.49849999 4294928076
-4.9245 -1.8345 -0.49950001 4294928076
-4.9204998 -1.8415 -0.48950002 4294928076
-4.9145002 -1.8485 -0.4835 4294928076
-4.9194999 -1.8405 -0.48050001 4294928076
-4.9254999 -1.8345 -0.48050001 4294928076
-6.6114998 0.31149998 0.81349999 4294928076
-4.9124999 -1.8515 -0.47549999 4294928076
-6.8004999 0.5485 -0.3075 4294928076
-4.9155002 -1.8455 -0.46850002 4294928076
-5.0565 -1.6645 0.92149997 4294928076
-4.9204998 -1.8395 -0.47049999 4294928076
-4.9184999 -1.8435 -0.4605 4294928076
-4.9134998 -1.8485 -0.45449999 4294928076
-4.9194999 -1.8425 -0.44850001 4294928076
-4.9245 -1.8345 -0.46149999 4294928076
-4.8695002 -1.9045 -0.44049999 4294928076
-4.8655 -1.9105 -0.43650001 4294928076
-4.8825002 -1.8885 -0.44049999 4294928076
-4.8755002 -1.8975 -0.4425 4294928076
-4.8744998 -1.9005001 -0.43450001 4294928076
-4.8785 -1.8925 -0.43349999 4294928076
-4.8655 -1.9095 -0.4285 4294928076
-4.8695002 -1.9045 -0.4215 4294928076
-4.8825002 -1.8885 -0.42649999 4294928076
-4.8804998 -1.8915 -0.4165 4294928076
-4.8765001 -1.8965 -0.42649999 4294928076
-4.8965001 -1.8705 -0.4465 4294928076
-4.9025002 -1.8645 -0.44049999 4294928076
-4.9085002 -1.8565 -0.44549999 4294928076
-4.8994999 -1.8674999 -0.43349999 4294928076
-4.9064999 -1.8585 -0.43650001 4294928076
-4.8985 -1.8685 -0.42449999 4294928076
-4.9045 -1.8625 -0.4285 4294928076
-4.8985 -1.8695 -0.4165 4294928076
-4.9045 -1.8605 -0.41850001 4294928076
-4.8895001 -1.8805 -0.4445 4294928076
-6.5044999 0.17549999 0.83249998 4294928076
-4.8915 -1.8775001 -0.43650001 4294928076
-4.8874998 -1.8825001 -0.42950001 4294928076
-4.8885002 -1.8805 -0.4215 4294928076
-6.6314998 0.33750001 0.77249998 4294928076
-4.8674998 -1.9065 -0.41350001 4294928076
-4.8664999 -1.9085 -0.40450001 4294928076
-6.6055002 0.3035 0.7705 4294928076
-4.8814998 -1.8904999 -0.40450001 4294928076
-4.8724999 -1.9005001 -0.4095 4294928076
-4.8755002 -1.8965 -0.40150002 4294928076
-4.8705001 -1.9045 -0.3985 4294928076
-4.8645 -1.9105 -0.39449999 4294928076
-4.8655 -1.9115 -0.3865 4294928076
-4.8804998 -1.8904999 -0.3935 4294928076
-4.8814998 -1.8885 -0.38550001 4294928076
-4.8744998 -1.9005001 -0.38949999 4294928076
-4.9025002 -1.8645 -0.41049999 4294928076
-4.8965001 -1.8715 -0.40150002 4294928076
-4.9064999 -1.8585 -0.40549999 4294928076
-4.9015002 -1.8645 -0.39449999 4294928076
-4.9085002 -1.8565 -0.3935 4294928076
-4.8965001 -1.8715 -0.3915 4294928076
-4.8994999 -1.8665 -0.3845 4294928076
-4.9054999 -1.8585 -0.3845 4294928076
-4.8864999 -1.8835 -0.41249999 4294928076
-4.8924999 -1.8755 -0.41049999 4294928076
-4.8874998 -1.8815 -0.4005 4294928076
-4.8905001 -1.8785 -0.3935 4294928076
-4.9285002 -1.8325 -0.44749999 4294928076
-4.9285002 -1.8325 -0.43850002 4294928076
-4.9324999 -1.8245 -0.4325 4294928076
-4.9285002 -1.8305 -0.42750001 4294928076
-4.9295001 -1.8285 -0.4165 4294928076
-4.9365001 -1.8195 -0.44150001 4294928076
-4.9384999 -1.8175 -0.4325 4294928076
-4.9415002 -1.8125 -0.43850002 4294928076
-4.9445 -1.8075 -0.4445 4294928076
-4.9514999 -1.8005 -0.4425 4294928076
-4.9464998 -1.8065 -0.43349999 4294928076
-4.9565001 -1.7934999 -0.4395 4294928076
-4.9534998 -1.7985001 -0.4325 4294928076
-4.9445 -1.8095 -0.42050001 4294928076
-4.9334998 -1.8235 -0.42449999 4294928076
-4.9375 -1.8175 -0.42050001 4294928076
-4.9524999 -1.7975 -0.42449999 4294928076
-4.9485002 -1.8035001 -0.4165 4294928076
-4.9545002 -1.7945 -0.4165 4294928076
-4.9334998 -1.8245 -0.41049999 4294928076
-4.9285002 -1.8295 -0.40650001 4294928076
-4.9324999 -1.8245 -0.40150002 4294928076
-4.9285002 -1.8305 -0.39750001 4294928076
-6.6015 0.30050001 -0.064500004 4294928076
-4.9285002 -1.8305 -0.3845 4294928076
-4.9384999 -1.8175 -0.41049999 4294928076
-4.9435 -1.8105 -0.4095 4294928076
-4.9394999 -1.8164999 -0.4025 4294928076
-4.9565001 -1.7925 -0.40849999 4294928076
-4.9514999 -1.7995 -0.4095 4294928076
-4.9495001 -1.8025 -0.40150002 4294928076
-4.9545002 -1.7955 -0.4005 4294928076
-4.9445 -1.8105 -0.39649999 4294928076
-4.9355001 -1.8205 -0.39449999 4294928076
-4.9384999 -1.8175 -0.38749999 4294928076
-4.9435 -1.8105 -0.3845 4294928076
-4.8855 -1.8825001 0.047499999 4294928076
-4.9495001 -1.8015 -0.39050001 4294928076
-4.9555001 -1.7945 -0.38850001 4294928076
-4.9124999 -1.8495001 -0.44549999 4294928076
-4.9124999 -1.8505 -0.4375 4294928076
-4.9204998 -1.8415 -0.43650001 4294928076
-4.9204998 -1.8415 -0.42750001 4294928076
-4.9204998 -1.8415 -0.41949999 4294928076
-4.9155002 -1.8465 -0.4235 4294928076
-4.9095001 -1.8535 -0.4305 4294928076
-4.9085002 -1.8545001 -0.42250001 4294928076
-4.9134998 -1.8505 -0.41049999 4294928076
-4.9194999 -1.8415 -0.40849999 4294928076
-4.9204998 -1.8405 -0.4005 4294928076
-4.9124999 -1.8505 -0.39750001 4294928076
-4.9124999 -1.8495001 -0.38949999 4294928076
-4.9184999 -1.8435 -0.39050001 4294928076
-4.9225001 -1.8375 -0.3865 4294928076
-6.7855 0.52950001 -0.38049999 4294928076
-5.5584998 -1.0305001 0.93849999 4294928076
-6.5545001 0.2405 -0.54049999 4294928076
-4.8464999 -1.9335001 0.0175 4294928076
-6.7674999 0.50949997 0.18350001 4294928076
-4.8685002 -1.9065 -0.3775 4294928076
-4.8645 -1.9115 -0.3725 4294928076
-4.8835001 -1.8885 -0.3775 4294928076
-4.8814998 -1.8904999 -0.36950001 4294928076
-4.8724999 -1.9005001 -0.38150001 4294928076
-4.8724999 -1.9015 -0.36950001 4294928076
-4.8674998 -1.9065 -0.3655 4294928076
-4.8645 -1.9115 -0.35749999 4294928076
-4.8765001 -1.8965 -0.3635 4294928076
-4.8724999 -1.9005001 -0.3565 4294928076
-4.8975 -1.8685 -0.37549999 4294928076
-4.9054999 -1.8605 -0.37450001 4294928076
-4.8994999 -1.8674999 -0.3655 4294928076
-4.9054999 -1.8585 -0.3655 4294928076
-4.8975 -1.8685 -0.35550001 4294928076
-4.9045 -1.8605 -0.3565 4294928076
-4.8905001 -1.8785 -0.38350001 4294928076
-4.8885002 -1.8805 -0.37150002 4294928076
-4.8885002 -1.8805 -0.36050001 4294928076
-4.8924999 -1.8745 -0.36750001 4294928076
-4.8825002 -1.8875 -0.35249999 4294928076
-4.8664999 -1.9085 -0.3495 4294928076
-4.8655 -1.9085 -0.34150001 4294928076
-4.8835001 -1.8885 -0.34450001 4294928076
-4.8715 -1.9015 -0.34549999 4294928076
-4.8785 -1.8925 -0.33750001 4294928076
-4.8705001 -1.9045 -0.33250001 4294928076
-4.8664999 -1.9085 -0.3265 4294928076
-4.8814998 -1.8885 -0.3265 4294928076
-4.8724999 -1.9005001 -0.32550001 4294928076
-4.8965001 -1.8695 -0.34549999 4294928076
-4.9054999 -1.8595001 -0.34650001 4294928076
-4.9004998 -1.8645 -0.33950001 4294928076
-4.9015002 -1.8645 -0.32949999 4294928076
-4.9045 -1.8585 -0.3355 4294928076
-4.8965001 -1.8705 -0.32350001 4294928076
-4.9015002 -1.8645 -0.32050002 4294928076
-6.7024999 0.4285 0.092499994 4294928076
-4.9054999 -1.8575 -0.32550001 4294928076
-4.8885002 -1.8805 -0.34450001 4294928076
-4.8924999 -1.8745 -0.3515 4294928076
-4.8924999 -1.8755 -0.33950001 4294928076
-4.8885002 -1.8805 -0.33450001 4294928076
-4.8864999 -1.8825001 -0.32050002 4294928076
-4.9315 -1.8255 -0.3775 4294928076
-4.9285002 -1.8295 -0.36849999 4294928076
-4.9315 -1.8255 -0.3585 4294928076
-4.9445 -1.8085001 -0.37349999 4294928076
-4.9375 -1.8164999 -0.3795 4294928076
-4.9384999 -1.8164999 -0.3705 4294928076
-4.9495001 -1.8015 -0.38249999 4294928076
-4.9565001 -1.7934999 -0.37850001 4294928076
-4.9505 -1.8025 -0.3725 4294928076
-4.9565001 -1.7934999 -0.36950001 4294928076
-4.9454999 -1.8085001 -0.36450002 4294928076
-4.9384999 -1.8164999 -0.35949999 4294928076
-4.9435 -1.8105 -0.3545 4294928076
-4.9505 -1.8015 -0.36050001 4294928076
-4.9575 -1.7925 -0.36050001 4294928076
-4.9514999 -1.7995 -0.35249999 4294928076
-4.9305 -1.8265001 -0.35050002 4294928076
-4.9295001 -1.8295 -0.34150001 4294928076
-4.9324999 -1.8245 -0.33250001 4294928076
-4.9315 -1.8275 -0.32449999 4294928076
-4.9445 -1.8085001 -0.34549999 4294928076
-4.9365001 -1.8195 -0.34850001 4294928076
-4.9384999 -1.8164999 -0.33950001 4294928076
-4.8425002 -1.9365 0.35049999 4294928076
-4.9565001 -1.7934999 -0.35050002 4294928076
-4.9495001 -1.8025 -0.33950001 4294928076
-4.9545002 -1.7955 -0.3425 4294928076
-4.9464998 -1.8085001 -0.3335 4294928076
-4.9375 -1.8175 -0.33149999 4294928076
-4.9375 -1.8175 -0.32249999 4294928076
-4.9435 -1.8105 -0.32350001 4294928076
-4.9534998 -1.7985001 -0.33050001 4294928076
-4.9565001 -1.7925 -0.32449999 4294928076
-4.9514999 -1.7995 -0.32050002 4294928076
-4.9134998 -1.8505 -0.38049999 4294928076
-4.9194999 -1.8415 -0.3795 4294928076
-4.9134998 -1.8485 -0.3705 4294928076
-6.6304998 0.33750001 0.1085 4294928076
-4.9245 -1.8365 -0.37450001 4294928076
-4.9145002 -1.8485 -0.36250001 4294928076
-4.9194999 -1.8405 -0.35749999 4294928076
-6.5194998 0.1965 0.43149999 4294928076
-4.9115 -1.8515 -0.35249999 4294928076
-4.9225001 -1.8375 -0.36649999 4294928076
-4.9264998 -1.8325 -0.36050001 4294928076
-4.9155002 -1.8455 -0.34850001 4294928076
-4.9124999 -1.8495001 -0.33849999 4294928076
-4.9194999 -1.8415 -0.3425 4294928076
-4.9245 -1.8345 -0.34549999 4294928076
-4.9235001 -1.8355 -0.33649999 4294928076
-4.9134998 -1.8485 -0.33050001 4294928076
-4.9124999 -1.8505 -0.32249999 4294928076
-4.9194999 -1.8415 -0.32750002 4294928076
-4.9245 -1.8345 -0.32750002 4294928076
-4.8655 -1.9105 -0.31850001 4294928076
-4.8695002 -1.9045 -0.31350002 4294928076
-4.8655 -1.9105 -0.30849999 4294928076
-4.8814998 -1.8885 -0.3175 4294928076
-4.8814998 -1.8885 -0.30649999 4294928076
-4.8755002 -1.8965 -0.31850001 4294928076
-4.8744998 -1.8985 -0.30649999 4294928076
-4.8645 -1.9115 -0.2985 4294928076
-4.8685002 -1.9055001 -0.2915 4294928076
-4.8814998 -1.8904999 -0.29750001 4294928076
-4.8734999 -1.8995 -0.2985 4294928076
-6.8014998 0.5535 0.3795 4294928076
-4.8755002 -1.8975 -0.2895 4294928076
-4.7944999 -1.9945 0.6785 4294928076
-4.9074998 -1.8575 -0.3175 4294928076
-4.9015002 -1.8645 -0.3105 4294928076
-4.9064999 -1.8565 -0.30649999 4294928076
-4.8994999 -1.8674999 -0.30250001 4294928076
-4.9054999 -1.8585 -0.29750001 4294928076
-4.8965001 -1.8685 -0.29449999 4294928076
-4.9004998 -1.8645 -0.28850001 4294928076
-4.9054999 -1.8575 -0.2895 4294928076
-6.3895001 0.034499999 0.2175 4294928076
-4.8915 -1.8755 -0.3195 4294928076
-4.8885002 -1.8805 -0.31150001 4294928076
-4.8924999 -1.8735 -0.30849999 4294928076
-4.8874998 -1.8805 -0.29949999 4294928076
-4.8924999 -1.8755 -0.29350001 4294928076
-4.8655 -1.9105 -0.27849999 4294928076
-4.8685002 -1.9055001 -0.27250001 4294928076
-4.8804998 -1.8895 -0.2825 4294928076
-4.8804998 -1.8895 -0.27250001 4294928076
-4.8715 -1.9025 -0.2845 4294928076
-4.8755002 -1.8965 -0.27450001 4294928076
-4.8674998 -1.9075 -0.26449999 4294928076
-4.8825002 -1.8885 -0.2615 4294928076
-4.8734999 -1.8995 -0.26550001 4294928076
-4.9004998 -1.8655 -0.28049999 4294928076
-4.9064999 -1.8585 -0.28150001 4294928076
-4.8975 -1.8685 -0.2735 4294928076
-4.9064999 -1.8565 -0.27250001 4294928076
-4.9045 -1.8585 -0.26449999 4294928076
-4.8965001 -1.8695 -0.26350001 4294928076
-4.9004998 -1.8645 -0.25749999 4294928076
-4.8855 -1.8835 -0.28049999 4294928076
-4.8885002 -1.8805 -0.2735 4294928076
-4.8944998 -1.8715 -0.28549999 4294928076
-4.8874998 -1.8815 -0.25650001 4294928076
-4.8915 -1.8765 -0.26350001 4294928076
-4.9315 -1.8255 -0.31650001 4294928076
-4.9315 -1.8255 -0.30849999 4294928076
-4.9305 -1.8255 -0.30050001 4294928076
-4.9285002 -1.8285 -0.29249999 4294928076
-4.9445 -1.8085001 -0.31150001 4294928076
-4.9384999 -1.8164999 -0.3105 4294928076
-4.8734999 -1.8965 0.2545 4294928076
-4.9575 -1.7945 -0.31549999 4294928076
-4.9485002 -1.8035001 -0.30649999 4294928076
-4.9454999 -1.8085001 -0.29750001 4294928076
-4.9384999 -1.8164999 -0.30149999 4294928076
-4.9365001 -1.8195 -0.2915 4294928076
-4.9415002 -1.8125 -0.2915 4294928076
-4.9505 -1.8015 -0.2985 4294928076
-4.9555001 -1.7945 -0.30250001 4294928076
-4.9464998 -1.8055 -0.2895 4294928076
-4.9565001 -1.7934999 -0.29249999 4294928076
-4.9295001 -1.8285 -0.2845 4294928076
-4.9285002 -1.8285 -0.27650002 4294928076
-4.9315 -1.8245 -0.2665 4294928076
-4.9375 -1.8175 -0.28049999 4294928076
-5.5205002 -1.0805 0.9515 4294928076
-4.9415002 -1.8115 -0.27650002 4294928076
-4.9495001 -1.8015 -0.28049999 4294928076
-4.9545002 -1.7955 -0.2845 4294928076
-4.9464998 -1.8055 -0.27250001 4294928076
-4.9534998 -1.7965 -0.27250001 4294928076
-4.9384999 -1.8155 -0.26949999 4294928076
-4.9365001 -1.8195 -0.26250002 4294928076
-4.9324999 -1.8235 -0.25650001 4294928076
-4.9495001 -1.8005 -0.26550001 4294928076
-4.9555001 -1.7945 -0.26449999 4294928076
-4.9454999 -1.8065 -0.25650001 4294928076
-4.9505 -1.7995 -0.25749999 4294928076
-4.9124999 -1.8495001 -0.31350002 4294928076
-6.6865001 0.40849999 0.71950001 4294928076
-4.9184999 -1.8425 -0.3195 4294928076
-5.6845002 -0.86650002 0.82450002 4294928076
-4.9194999 -1.8405 -0.3105 4294928076
-6.2954998 -0.094500005 0.94349998 4294928076
-4.9254999 -1.8335 -0.3195 4294928076
-6.7104998 0.4355 -0.57349998 4294928076
-4.9225001 -1.8355 -0.30450001 4294928076
-4.9124999 -1.8495001 -0.2985 4294928076
-4.9175 -1.8425 -0.2985 4294928076
-4.9134998 -1.8465 -0.29050002 4294928076
-4.9235001 -1.8355 -0.29249999 4294928076
-4.9155002 -1.8465 -0.28150001 4294928076
-4.9134998 -1.8485 -0.27250001 4294928076
-4.9194999 -1.8405 -0.2775 4294928076
-4.9184999 -1.8415 -0.26949999 4294928076
-4.9134998 -1.8485 -0.25850001 4294928076
-4.9064999 -1.8555 -0.25650001 4294928076
-4.9245 -1.8345 -0.2705 4294928076
-4.9215002 -1.8375 -0.26250002 4294928076
-4.9274998 -1.8305 -0.26050001 4294928076
-5.2995 -1.3565 0.85750002 4294928076
-4.8004999 -1.9935 -0.50449997 4294928076
-4.8065 -1.9865 -0.5025 4294928076
-4.8004999 -1.9915 -0.49450001 4294928076
-4.8004999 -1.9935 -0.4815 4294928076
-4.8045001 -1.9865 -0.48649999 4294928076
-4.8065 -1.9845001 -0.4765 4294928076
-4.8004999 -1.9915 -0.4655 4294928076
-4.8065 -1.9845001 -0.46349999 4294928076
-4.8065 -1.9845001 -0.45250002 4294928076
-4.8014998 -1.9905 -0.44850001 4294928076
-4.7725 -2.0274999 -0.51050001 4294928076
-4.7814999 -2.0165 -0.50749999 4294928076
-4.7725 -2.0285001 -0.5025 4294928076
-4.7785001 -2.0215001 -0.49649999 4294928076
-4.7694998 -2.0335 -0.48449999 4294928076
-4.7694998 -2.0315001 -0.49250001 4294928076
-4.7765002 -2.0215001 -0.4885 4294928076
-4.7814999 -2.0165 -0.4815 4294928076
-4.9165001 -1.8405 0.3215 4294928076
-4.7665 -2.0355 -0.50550002 4294928076
-4.7614999 -2.0425 -0.49649999 4294928076
-4.7645001 -2.0374999 -0.4905 4294928076
-4.7614999 -2.0425 -0.4815 4294928076
-4.7874999 -2.0085001 -0.50650001 4294928076
-4.7874999 -2.0095 -0.49849999 4294928076
-4.7925 -2.0025001 -0.5025 4294928076
-4.7865 -2.0095 -0.4905 4294928076
-4.7934999 -2.0014999 -0.49450001 4294928076
-4.7934999 -2.0035 -0.48449999 4294928076
-6.7775002 0.52149999 -0.076500006 4294928076
-4.7694998 -2.0335 -0.46950001 4294928076
-4.7735 -2.0265 -0.4765 4294928076
-4.7785001 -2.0195 -0.47350001 4294928076
-4.7754998 -2.0244999 -0.4655 4294928076
-4.7684999 -2.0335 -0.46149999 4294928076
-4.7684999 -2.0325 -0.44949999 4294928076
-4.7744999 -2.0265 -0.45750001 4294928076
-4.7804999 -2.0174999 -0.46349999 4294928076
-4.7804999 -2.0195 -0.45449999 4294928076
-4.7605 -2.0425 -0.4725 4294928076
-4.7595 -2.0445001 -0.46450001 4294928076
-4.7595 -2.0445001 -0.45649999 4294928076
-4.7845001 -2.0114999 -0.4725 4294928076
-4.7925 -2.0014999 -0.47549999 4294928076
-6.7934999 0.5395 -0.26449999 4294928076
-4.7944999 -2.0005 -0.46650001 4294928076
-4.7985001 -1.9955 -0.4725 4294928076
-4.7855 -2.0105 -0.46349999 4294928076
-4.7884998 -2.0055001 -0.45750001 4294928076
-4.7865 -2.0095 -0.44850001 4294928076
-4.7944999 -2.0005 -0.45550001 4294928076
-4.8325 -1.9525 -0.50550002 4294928076
-4.8185 -1.9694999 -0.50749999 4294928076
-6.0174999 -0.4445 0.90649998 4294928076
-4.8125 -1.9765 -0.50749999 4294928076
-5.0035 -1.7285 0.83950001 4294928076
-4.8105001 -1.9805 -0.4975 4294928076
-4.8245001 -1.9635 -0.50550002 4294928076
-4.8204999 -1.9665 -0.49649999 4294928076
-4.8165002 -1.9715 -0.48950002 4294928076
-4.8175001 -1.9705 -0.4815 4294928076
-4.8115001 -1.9785 -0.48250002 4294928076
-4.8245001 -1.9625 -0.4885 4294928076
-4.8284998 -1.9565001 -0.49250001 4294928076
-4.8315001 -1.9535 -0.4835 4294928076
-4.8365002 -1.9475 -0.5115 4294928076
-4.7145 -2.0985 0.67949998 4294928076
-4.8404999 -1.9414999 -0.50650001 4294928076
-4.8325 -1.9515001 -0.4975 4294928076
-4.8375001 -1.9445 -0.49849999 4294928076
-4.8525 -1.9285001 -0.50950003 4294928076
-4.8565001 -1.9205 -0.50449997 4294928076
-4.8525 -1.9265 -0.49849999 4294928076
-4.8464999 -1.9355 -0.50349998 4294928076
-4.8445001 -1.9365 -0.4955 4294928076
-4.8365002 -1.9475 -0.48649999 4294928076
-4.8414998 -1.9405 -0.48750001 4294928076
-4.8495002 -1.9305 -0.4905 4294928076
-4.8575001 -1.9205 -0.49349999 4294928076
-4.8505001 -1.9295 -0.4815 4294928076
-4.8575001 -1.9215 -0.48550001 4294928076
-4.8325 -1.9525 -0.4605 4294928076
-4.8195 -1.9705 -0.4725 4294928076
-4.8134999 -1.9765 -0.4745 4294928076
-4.8125 -1.9775 -0.46450001 4294928076
-4.8245001 -1.9615 -0.47549999 4294928076
-4.8305001 -1.9545 -0.47549999 4294928076
-4.8245001 -1.9615 -0.46650001 4294928076
-4.8195 -1.9675 -0.46450001 4294928076
-4.8165002 -1.9725 -0.45750001 4294928076
-4.8115001 -1.9785 -0.45449999 4294928076
-4.8154998 -1.9745001 -0.44850001 4294928076
-4.8245001 -1.9615 -0.4585 4294928076
-4.8255 -1.9605 -0.45050001 4294928076
-4.8195 -1.9675 -0.4515 4294928076
-4.8375001 -1.9464999 -0.47749999 4294928076
-4.8425002 -1.9395 -0.47850001 4294928076
-4.8354998 -1.9495 -0.46950001 4294928076
-4.8404999 -1.9414999 -0.46950001 4294928076
-4.8495002 -1.9315 -0.4725 4294928076
-4.8565001 -1.9205 -0.47749999 4294928076
-4.8565001 -1.9225 -0.4655 4294928076
-4.8365002 -1.9455 -0.45649999 4294928076
-4.8445001 -1.9365 -0.46250001 4294928076
-4.8445001 -1.9365 -0.45449999 4294928076
-4.8395 -1.9425 -0.44850001 4294928076
-4.8515 -1.9275 -0.45750001 4294928076
-4.8505001 -1.9305 -0.44949999 4294928076
-4.8565001 -1.9205 -0.44949999 4294928076
-4.8065 -1.9845001 -0.44350001 4294928076
-4.8004999 -1.9924999 -0.4375 4294928076
-4.8055 -1.9865 -0.43450001 4294928076
-4.8024998 -1.9895 -0.42649999 4294928076
-4.8004999 -1.9935 -0.41850001 4294928076
-4.8084998 -1.9845001 -0.4215 4294928076
-4.8035002 -1.9895 -0.41049999 4294928076
-4.8024998 -1.9915 -0.4005 4294928076
-4.8065 -1.9845001 -0.3955 4294928076
-4.8045001 -1.9895 -0.38850001 4294928076
-4.7705002 -2.0304999 -0.44150001 4294928076
-4.7775002 -2.0204999 -0.44549999 4294928076
-4.7754998 -2.0244999 -0.43650001 4294928076
-4.7705002 -2.0304999 -0.43349999 4294928076
-4.7684999 -2.0335 -0.41949999 4294928076
-4.7735 -2.0274999 -0.42649999 4294928076
-4.7814999 -2.0165 -0.42950001 4294928076
-4.7735 -2.0255001 -0.41749999 4294928076
-4.7775002 -2.0204999 -0.4235 4294928076
-4.7605 -2.0434999 -0.4465 4294928076
-4.7614999 -2.0404999 -0.4375 4294928076
-4.7614999 -2.0415001 -0.4285 4294928076
-6.7395 0.47749999 0.82050002 4294928076
-4.7674999 -2.0355 -0.42750001 4294928076
-4.7624998 -2.0404999 -0.4165 4294928076
-4.7925 -2.0025001 -0.44749999 4294928076
-4.7884998 -2.0074999 -0.44049999 4294928076
-4.7934999 -2.0014999 -0.43650001 4294928076
-4.7824998 -2.0155001 -0.4375 4294928076
-4.7874999 -2.0085001 -0.4285 4294928076
-4.7934999 -2.0014999 -0.4285 4294928076
-4.7855 -2.0105 -0.41949999 4294928076
-4.7915001 -2.0044999 -0.4165 4294928076
-4.7694998 -2.0335 -0.40650001 4294928076
-4.7785001 -2.0215001 -0.41249999 4294928076
-4.7735 -2.0265 -0.40150002 4294928076
-4.7684999 -2.0335 -0.39449999 4294928076
-4.7684999 -2.0325 -0.3865 4294928076
-4.7735 -2.0265 -0.3935 4294928076
-4.7804999 -2.0174999 -0.3985 4294928076
-4.7775002 -2.0215001 -0.38850001 4294928076
-4.7624998 -2.0404999 -0.40650001 4294928076
-4.7614999 -2.0415001 -0.39649999 4294928076
-4.7564998 -2.0474999 -0.39250001 4294928076
-4.7605 -2.0425 -0.3865 4294928076
-4.7855 -2.0125 -0.4095 4294928076
-4.7905002 -2.0055001 -0.40849999 4294928076
-4.7855 -2.0114999 -0.40150002 4294928076
-4.7915001 -2.0044999 -0.4005 4294928076
-4.7975001 -1.9965 -0.41049999 4294928076
-4.7865 -2.0105 -0.3935 4294928076
-4.7845001 -2.0125 -0.38550001 4294928076
-4.7905002 -2.0055001 -0.38749999 4294928076
-4.7965002 -1.9975001 -0.39950001 4294928076
-4.7985001 -1.9945 -0.3845 4294928076
-4.8325 -1.9525 -0.44749999 4294928076
-4.8325 -1.9525 -0.42050001 4294928076
-4.8175001 -1.9705 -0.43650001 4294928076
-4.8134999 -1.9765 -0.44049999 4294928076
-4.8235002 -1.9625 -0.44150001 4294928076
-4.8255 -1.9605 -0.43349999 4294928076
-4.8305001 -1.9545 -0.43650001 4294928076
-4.8165002 -1.9735 -0.42750001 4294928076
-4.8165002 -1.9715 -0.41949999 4294928076
-4.8105001 -1.9805 -0.4305 4294928076
-4.8245001 -1.9635 -0.42449999 4294928076
-4.8235002 -1.9635 -0.4165 4294928076
-4.8365002 -1.9455 -0.44150001 4294928076
-4.8375001 -1.9464999 -0.43349999 4294928076
-4.8414998 -1.9405 -0.4375 4294928076
-4.8534999 -1.9255 -0.44350001 4294928076
-4.8565001 -1.9205 -0.43650001 4294928076
-4.8464999 -1.9345 -0.4395 4294928076
-4.8395 -1.9445 -0.42449999 4294928076
-4.8435001 -1.9375 -0.4285 4294928076
-5.6915002 -0.8635 0.94950002 4294928076
-4.8435001 -1.9375 -0.4165 4294928076
-4.8495002 -1.9295 -0.4305 4294928076
-4.8565001 -1.9215 -0.42750001 4294928076
-4.8484998 -1.9335001 -0.42250001 4294928076
-4.8565001 -1.9205 -0.41749999 4294928076
-4.8325 -1.9525 -0.39649999 4294928076
-4.8175001 -1.9705 -0.41049999 4294928076
-4.8165002 -1.9725 -0.4025 4294928076
-4.8095002 -1.9805 -0.41350001 4294928076
-4.8095002 -1.9805 -0.40549999 4294928076
-4.8255 -1.9615 -0.40849999 4294928076
-4.8305001 -1.9565001 -0.41249999 4294928076
-4.8305001 -1.9565001 -0.40349999 4294928076
-4.8175001 -1.9694999 -0.3935 4294928076
-4.8134999 -1.9765 -0.3915 4294928076
-4.8095002 -1.9815 -0.3865 4294928076
-4.8214998 -1.9645 -0.3985 4294928076
-4.8274999 -1.9575 -0.39250001 4294928076
-4.8225002 -1.9645 -0.3845 4294928076
-4.8354998 -1.9495 -0.41249999 4294928076
-4.8404999 -1.9425 -0.4095 4294928076
-4.8344998 -1.9485 -0.40349999 4294928076
-4.8445001 -1.9375 -0.40450001 4294928076
-4.8505001 -1.9305 -0.41049999 4294928076
-4.8505001 -1.9285001 -0.4025 4294928076
-4.8425002 -1.9395 -0.39649999 4294928076
-4.8344998 -1.9495 -0.38850001 4294928076
-4.7684999 -2.0285001 0.76749998 4294928076
-4.8395 -1.9425 -0.38949999 4294928076
-4.8505001 -1.9305 -0.39250001 4294928076
-4.8555002 -1.9225 -0.39449999 4294928076
-4.8534999 -1.9255 -0.3865 4294928076
-6.5685 0.25749999 0.69550002 4294928076
-4.8635001 -1.9145 -0.48250002 4294928076
-4.8614998 -1.9155 -0.46950001 4294928076
-4.8575001 -1.9195 -0.45750001 4294928076
-4.8614998 -1.9155 -0.4445 4294928076
-4.8614998 -1.9155 -0.42449999 4294928076
-4.8575001 -1.9195 -0.4095 4294928076
-4.8604999 -1.9165 -0.40150002 4294928076
-4.8585 -1.9184999 -0.3845 4294928076
-4.8045001 -1.9895 -0.3795 4294928076
-4.8024998 -1.9915 -0.3705 4294928076
-4.8014998 -1.9905 -0.36149999 4294928076
-4.8074999 -1.9845001 -0.3585 4294928076
-4.8004999 -1.9935 -0.34450001 4294928076
-4.8065 -1.9855 -0.34650001 4294928076
-4.8024998 -1.9915 -0.33450001 4294928076
-4.8065 -1.9845001 -0.33050001 4294928076
-4.8004999 -1.9915 -0.32550001 4294928076
-4.8055 -1.9855 -0.32050002 4294928076
-4.7694998 -2.0325 -0.37549999 4294928076
-4.7735 -2.0255001 -0.38150001 4294928076
-4.7804999 -2.0185001 -0.3775 4294928076
-4.7725 -2.0285001 -0.36849999 4294928076
-4.7785001 -2.0195 -0.36950001 4294928076
-4.7694998 -2.0315001 -0.36149999 4294928076
-4.7795 -2.0185001 -0.36050001 4294928076
-4.7735 -2.0265 -0.3565 4294928076
-4.7575002 -2.0465 -0.37650001 4294928076
-4.7635002 -2.0395 -0.3775 4294928076
-4.7655001 -2.0365 -0.36849999 4294928076
-4.7614999 -2.0425 -0.3585 4294928076
-6.8175001 0.56849998 -0.57450002 4294928076
-4.7845001 -2.0114999 -0.3775 4294928076
-4.7925 -2.0025001 -0.3775 4294928076
-4.7884998 -2.0074999 -0.36950001 4294928076
-4.7985001 -1.9955 -0.37650001 4294928076
-4.7855 -2.0125 -0.36149999 4294928076
-4.7905002 -2.0055001 -0.36050001 4294928076
-4.7944999 -2.0005 -0.35550001 4294928076
-4.7944999 -1.9985 -0.36649999 4294928076
-4.7684999 -2.0335 -0.3495 4294928076
-4.7754998 -2.0244999 -0.34650001 4294928076
-4.7814999 -2.0165 -0.34850001 4294928076
-5.6444998 -0.91750002 0.83850002 4294928076
-4.7705002 -2.0304999 -0.3405 4294928076
-4.7754998 -2.0244999 -0.33649999 4294928076
-4.7795 -2.0185001 -0.3405 4294928076
-4.7765002 -2.0244999 -0.3285 4294928076
-4.7705002 -2.0304999 -0.32750002 4294928076
-4.7814999 -2.0165 -0.3265 4294928076
-4.7624998 -2.0404999 -0.35050002 4294928076
-6.4194999 0.071499996 -0.17550001 4294928076
-4.7635002 -2.0395 -0.33849999 4294928076
-5.4274998 -1.1855 0.88849998 4294928076
-4.7614999 -2.0415001 -0.32949999 4294928076
-4.7665 -2.0355 -0.32050002 4294928076
-4.7865 -2.0085001 -0.3515 4294928076
-4.7944999 -2.0005 -0.34650001 4294928076
-4.7845001 -2.0125 -0.33849999 4294928076
-4.7954998 -1.9995 -0.33849999 4294928076
-4.7944999 -2.0005 -0.3285 4294928076
-4.7895002 -2.0065 -0.33450001 4294928076
-4.7865 -2.0095 -0.32550001 4294928076
-4.8325 -1.9525 -0.38049999 4294928076
-4.8325 -1.9525 -0.36050001 4294928076
-4.8175001 -1.9725 -0.37650001 4294928076
-4.8084998 -1.9825 -0.3775 4294928076
-6.6595001 0.36849999 -0.4815 4294928076
-4.8095002 -1.9805 -0.36849999 4294928076
-4.8214998 -1.9645 -0.37650001 4294928076
-4.8274999 -1.9585 -0.37349999 4294928076
-4.8175001 -1.9694999 -0.36450002 4294928076
-4.8125 -1.9775 -0.3545 4294928076
-4.8235002 -1.9635 -0.36149999 4294928076
-4.8255 -1.9605 -0.35350001 4294928076
-4.8365002 -1.9455 -0.38150001 4294928076
-4.8435001 -1.9375 -0.38350001 4294928076
-4.8344998 -1.9485 -0.36950001 4294928076
-4.8404999 -1.9414999 -0.3725 4294928076
-4.8495002 -1.9305 -0.38049999 4294928076
-4.8505001 -1.9295 -0.3725 4294928076
-4.8575001 -1.9205 -0.36849999 4294928076
-4.8455 -1.9355 -0.36950001 4294928076
