# .PCD v0.7 - Point Cloud Data file format
VERSION 0.7
FIELDS x y z rgb
SIZE 4 4 4 4
TYPE F F F U
COUNT 1 1 1 1
WIDTH 1163
HEIGHT 1
VIEWPOINT 0 0 0 1 0 0 0
POINTS 1163
DATA ascii
-4.6424999 -1.9175 -0.022500001 4288230297
-4.6434999 -1.9155 -0.014500004 4288230297
-4.6364999 -1.9105 -0.024500003 4288230297
-4.7564998 -2.0044999 0.1135 4288230297
-4.6285 -1.9065 -0.021500001 4288230297
-4.6224999 -1.9015 -0.030500002 4288230297
-4.6104999 -1.8925 -0.029500002 4288230297
-4.6195002 -1.8975 -0.021500001 4288230297
-4.6114998 -1.8925 -0.021500001 4288230297
-4.6364999 -1.9105 -0.0125 4288230297
-4.6285 -1.9065 -0.004500004 4288230297
-4.6224999 -1.9025 -0.014500004 4288230297
-4.6164999 -1.8965 -0.0085000023 4288230297
-4.6094999 -1.8895 -0.0125 4288230297
-2.8245001 -0.48249999 0.29949999 4288230297
-4.6104999 -1.8925 -0.0035000003 4288230297
-2.8635001 -0.51550001 0.0955 4288230297
-4.3915 -1.7165 0.1855 4288230297
-4.4844999 -1.7885 0.46849999 4288230297
-3.0985 -0.69950002 0.063499995 4288230297
-3.3975 -0.93150002 0.61449999 4288230297
-3.3815 -0.92049998 0.2705 4288230297
-3.9725001 -1.3865 0.40149999 4288230297
-2.9995 -0.61949998 0.022499997 4288230297
-4.0365 -1.4365 0.2045 4288230297
-2.8545001 -0.50650001 0.47749999 4288230297
-4.0184999 -1.4235001 0.29449999 4288230297
-3.5825 -1.0944999 -0.6365 4288230297
-4.6205001 -1.8985 0.4075 4288230297
-3.6624999 -1.1415 0.015499996 4288230297
-4.2005 -1.5675 0.053499997 4288230297
-2.6115 -0.33050001 -1.1155 4288230297
-3.2904999 -0.8495 0.36950001 4288230297
-3.4375 -0.96450001 0.5855 4288230297
-4.0374999 -1.4345 0.6135 4288230297
-3.7825 -1.2335 0.4675 4288230297
-3.8245001 -1.2704999 0.28349999 4288230297
-3.2145 -0.7895 0.31349999 4288230297
-4.0405002 -1.4395 -0.1105 4288230297
-3.7205 -1.1875 0.12549999 4288230297
-4.5275002 -1.8265001 0.0044999965 4288230297
-3.7925 -1.2435 0.2155 4288230297
-4.4635 -1.7845 0.3545 4288230297
-4.5285001 -1.8235 0.48050001 4288230297
-3.6724999 -1.1485 0.041499998 4288230297
-3.7904999 -1.2535 0.29749998 4288230297
-2.9765 -0.59350002 -0.0625 4288230297
-3.6545 -1.1355 0.2255 4288230297
-4.1595001 -1.5325 0.59249997 4288230297
-3.1554999 -0.74349999 0.50550002 4288230297
-4.6675 -1.9355 0.0034999968 4288230297
-4.4575 -1.7685 0.32749999 4288230297
-4.5925002 -1.8795 -0.1285 4288230297
-4.5825 -1.8695 -0.1285 4288230297
-4.5114999 -1.8125 -0.1285 4288230297
-4.6075001 -1.8895 -0.1275 4288230297
-4.6075001 -1.9015 -0.11350001 4288230297
-4.6055002 -1.8885 -0.1005 4288230297
-4.6015 -1.8835 -0.12550001 4288230297
-4.6015 -1.8835 -0.11350001 4288230297
-4.2175002 -1.5785 0.51950002 4288230297
-4.5885 -1.8735 -0.1235 4288230297
-3.5675001 -1.0655 0.38350001 4288230297
-4.5844998 -1.8695 -0.11650001 4288230297
-4.5774999 -1.8645 -0.1125 4288230297
-4.5945001 -1.8795 -0.1075 4288230297
-4.5995002 -1.8825001 -0.0995 4288230297
-4.5885 -1.8745 -0.1115 4288230297
-4.5885 -1.8735 -0.1005 4288230297
-4.5805001 -1.8685 -0.10550001 4288230297
-4.5764999 -1.8635 -0.097500004 4288230297
-4.5725002 -1.8735 -0.1225 4288230297
-4.5725002 -1.8625 -0.1275 4288230297
-4.5685 -1.8585 -0.1215 4288230297
-4.5665002 -1.8575 -0.1125 4288230297
-4.5685 -1.8575 -0.1005 4288230297
-4.6055002 -1.8895 -0.080499999 4288230297
-4.6075001 -1.8875 -0.092500001 4288230297
-4.5935001 -1.8795 -0.093500003 4288230297
-4.6005001 -1.8815 -0.085500002 4288230297
-4.5885 -1.8745 -0.089500003 4288230297
-4.5855002 -1.8724999 -0.081500001 4288230297
-4.5825 -1.8685 -0.090500005 4288230297
-4.5774999 -1.8665 -0.081500001 4288230297
-4.5974998 -1.8825001 -0.077500001 4288230297
-4.5935001 -1.8765 -0.073500007 4288230297
-4.6005001 -1.8815 -0.068500005 4288230297
-4.5885 -1.8735 -0.067500003 4288230297
-4.5764999 -1.8655 -0.071500003 4288230297
-4.5815001 -1.8665 -0.064500004 4288230297
-4.5704999 -1.8585 -0.091499999 4288230297
-4.5665002 -1.8575 -0.083500005 4288230297
-4.5685 -1.8595001 -0.075500004 4288230297
-4.5685 -1.8565 -0.067500003 4288230297
-4.5625 -1.8535 -0.1275 4288230297
-4.5605001 -1.8505 -0.1155 4288230297
-4.5495 -1.8444999 -0.12550001 4288230297
-4.6764998 -1.9395 0.42249998 4288230297
-4.5605001 -1.8505 -0.10550001 4288230297
-4.5625 -1.8525 -0.096500002 4288230297
-4.5524998 -1.8465 -0.1115 4288230297
-4.5465002 -1.8415 -0.1075 4288230297
-4.5555 -1.8485 -0.096500002 4288230297
-4.5524998 -1.8465 -0.088500001 4288230297
-4.5485001 -1.8405 -0.093500003 4288230297
-4.5574999 -1.8485 -0.081500001 4288230297
-4.5465002 -1.8415 -0.0845 4288230297
-4.5605001 -1.8535 -0.072499998 4288230297
-4.5524998 -1.8444999 -0.074500002 4288230297
-4.5514998 -1.8455 -0.064500004 4288230297
-4.5415001 -1.8375 -0.1265 4288230297
-4.5374999 -1.8335 -0.1205 4288230297
-4.5415001 -1.8375 -0.1125 4288230297
-4.5314999 -1.8275 -0.1185 4288230297
-4.5265002 -1.8255 -0.1265 4288230297
-4.3074999 -1.6505001 0.3545 4288230297
-4.5355 -1.8325 -0.10550001 4288230297
-4.5434999 -1.8385 -0.0995 4288230297
-4.5295 -1.8265001 -0.096500002 4288230297
-4.5265002 -1.8245 -0.1115 4288230297
-4.5205002 -1.8195 -0.1215 4288230297
-4.5184999 -1.8185 -0.1125 4288230297
-4.5205002 -1.8195 -0.0995 4288230297
-4.7564998 -2.0025001 0.45449999 4288230297
-4.5114999 -1.8125 -0.1195 4288230297
-4.4994998 -1.8025 -0.12550001 4288230297
-4.5054998 -1.8065 -0.1155 4288230297
-4.4965 -1.8005 -0.1155 4288230297
-4.4914999 -1.7975 -0.12450001 4288230297
-4.4854999 -1.7934999 -0.1205 4288230297
-4.4895 -1.7965 -0.11350001 4288230297
-4.5085001 -1.8115 -0.1065 4288230297
-4.5005002 -1.8055 -0.1085 4288230297
-4.5035 -1.8065 -0.1005 4288230297
-4.4965 -1.8005 -0.097500004 4288230297
-4.4945002 -1.7995 -0.10550001 4288230297
-4.4895 -1.7965 -0.096500002 4288230297
-4.4844999 -1.7925 -0.1015 4288230297
-4.5415001 -1.8375 -0.089500003 4288230297
-4.5355 -1.8335 -0.0955 4288230297
-4.5384998 -1.8345 -0.080499999 4288230297
-4.5285001 -1.8255 -0.087499999 4288230297
-3.7915001 -1.2415 0.45750001 4288230297
-4.5345001 -1.8305 -0.073500007 4288230297
-4.5295 -1.8265001 -0.068500005 4288230297
-4.5194998 -1.8205 -0.090500005 4288230297
-4.5205002 -1.8185 -0.082500003 4288230297
-4.5124998 -1.8135 -0.085500002 4288230297
-4.5225 -1.8225 -0.073500007 4288230297
-4.5165 -1.8155 -0.073500007 4288230297
-4.5184999 -1.8185 -0.065500006 4288230297
-4.5114999 -1.8135 -0.093500003 4288230297
-4.5005002 -1.8055 -0.086500004 4288230297
-4.4955001 -1.8015 -0.081500001 4288230297
-4.4914999 -1.7965 -0.086500004 4288230297
-4.4844999 -1.7925 -0.087499999 4288230297
-4.5064998 -1.8095 -0.078500003 4288230297
-3.2974999 -0.85549998 0.0024999974 4288230297
-4.5054998 -1.8095 -0.070500001 4288230297
-4.5114999 -1.8135 -0.064500004 4288230297
-4.4965 -1.7995 -0.073500007 4288230297
-4.4994998 -1.8025 -0.064500004 4288230297
-4.4885001 -1.7945 -0.078500003 4288230297
-4.4924998 -1.7985001 -0.065500006 4288230297
-4.4864998 -1.7934999 -0.068500005 4288230297
-4.5995002 -1.8825001 -0.059500001 4288230297
-4.6034999 -1.8875 -0.052500002 4288230297
-4.5964999 -1.8815 -0.0515 4288230297
-4.5875001 -1.8724999 -0.052500002 4288230297
-4.5774999 -1.8665 -0.0535 4288230297
-4.6034999 -1.8845 -0.0425 4288230297
-4.5945001 -1.8795 -0.043499999 4288230297
-4.5955 -1.8785 -0.035500005 4288230297
-4.5875001 -1.8715 -0.0405 4288230297
-4.5774999 -1.8655 -0.041500002 4288230297
-4.5714998 -1.8615 -0.059500001 4288230297
-4.5685 -1.8585 -0.052500002 4288230297
-4.5714998 -1.8605 -0.044500005 4288230297
-4.5695 -1.8595001 -0.035500005 4288230297
-4.6044998 -1.8855 -0.029500002 4288230297
-4.5955 -1.8785 -0.024500003 4288230297
-4.6034999 -1.8835 -0.017500002 4288230297
-4.5885 -1.8745 -0.029500002 4288230297
-4.5885 -1.8735 -0.021500001 4288230297
-4.5825 -1.8674999 -0.031500001 4288230297
-4.5795002 -1.8674999 -0.023500001 4288230297
-4.5964999 -1.8815 -0.0085000023 4288230297
-4.5904999 -1.8745 -0.0095000016 4288230297
-4.5825 -1.8695 -0.0125 4288230297
-4.5764999 -1.8635 -0.0075000026 4288230297
-4.5745001 -1.8635 -0.029500002 4288230297
-4.5704999 -1.8585 -0.021500001 4288230297
-4.5714998 -1.8625 -0.014500004 4288230297
-4.5605001 -1.8505 -0.0625 4288230297
-4.5485001 -1.8415 -0.056500003 4288230297
-4.5524998 -1.8444999 -0.048500001 4288230297
-4.5625 -1.8525 -0.046500001 4288230297
-4.5605001 -1.8525 -0.034500003 4288230297
-4.5524998 -1.8444999 -0.034500003 4288230297
-4.5444999 -1.8395 -0.041500002 4288230297
-4.5634999 -1.8525 -0.022500001 4288230297
-2.8845 -0.53049999 -0.064500004 4288230297
-4.5495 -1.8435 -0.026500003 4288230297
-4.5545001 -1.8485 -0.016500004 4288230297
-4.5465002 -1.8415 -0.018500002 4288230297
-4.5634999 -1.8545001 -0.014500004 4288230297
-4.5605001 -1.8505 -0.0035000003 4288230297
-4.5545001 -1.8475 -0.0085000023 4288230297
-4.5425 -1.8355 -0.0605 4288230297
-4.5324998 -1.8285 -0.058500003 4288230297
-4.5355 -1.8315001 -0.0515 4288230297
-4.5244999 -1.8245 -0.058500003 4288230297
-4.5355 -1.8315001 -0.043499999 4288230297
-4.5314999 -1.8285 -0.036500003 4288230297
-3.5085001 -1.0195 0.36449999 4288230297
-4.5244999 -1.8245 -0.047500003 4288230297
-3.5715001 -1.0685 0.47049999 4288230297
-2.7084999 -0.39250001 0.3075 4288230297
-4.5135002 -1.8125 -0.056500003 4288230297
-4.5124998 -1.8135 -0.048500001 4288230297
-2.9165001 -0.55250001 -0.078500003 4288230297
-4.5194998 -1.8205 -0.0405 4288230297
-4.5254998 -1.8235 -0.034500003 4288230297
-4.5184999 -1.8195 -0.032499999 4288230297
-4.4994998 -1.8025 -0.052500002 4288230297
-4.4905 -1.7965 -0.056500003 4288230297
-4.4875002 -1.7934999 -0.049500003 4288230297
-4.5114999 -1.8125 -0.039500002 4288230297
-4.5054998 -1.8075 -0.047500003 4288230297
-4.4965 -1.7995 -0.0425 4288230297
-4.5054998 -1.8075 -0.036500003 4288230297
-4.4864998 -1.7934999 -0.041500002 4288230297
-3.8724999 -1.3075 0.32949999 4288230297
-4.4924998 -1.7985001 -0.033500001 4288230297
-4.5434999 -1.8375 -0.029500002 4288230297
-4.5365 -1.8335 -0.028500002 4288230297
-4.5395002 -1.8335 -0.020500001 4288230297
-4.5324998 -1.8295 -0.020500001 4288230297
-4.5275002 -1.8255 -0.026500003 4288230297
-4.5355 -1.8444999 -0.0055000037 4288230297
-4.5384998 -1.8355 -0.0085000023 4288230297
-4.5285001 -1.8265001 -0.0035000003 4288230297
-4.5254998 -1.8245 -0.0135 4288230297
-4.5135002 -1.8155 -0.027500002 4288230297
-4.5174999 -1.8164999 -0.019500002 4288230297
-4.5145001 -1.8164999 -0.011500001 4288230297
-4.5165 -1.8175 -0.0035000003 4288230297
-4.5085001 -1.8095 -0.024500003 4288230297
-4.5005002 -1.8045 -0.028500002 4288230297
-4.4864998 -1.8055 -0.025500003 4288230297
-4.4905 -1.7955 -0.024500003 4288230297
-4.4924998 -1.7975 -0.016500004 4288230297
-4.5054998 -1.8085001 -0.015500003 4288230297
-4.5005002 -1.8035001 -0.0085000023 4288230297
-4.4914999 -1.7965 -0.0085000023 4288230297
-4.4854999 -1.7925 -0.0135 4288230297
-4.4835 -1.8025 -0.0055000037 4288230297
-4.4895 -1.7965 -0.00050000148 4288230297
-4.4695001 -1.7925 -0.025500003 4288230297
-4.5005002 -1.8045 0.022499997 4288230297
-3.7175 -1.1845 0.036499999 4288230297
-3.3415 -0.88849998 0.35249999 4288230297
-3.7615001 -1.2185 0.1175 4288230297
-4.1065001 -1.4935 0.22149999 4288230297
-3.2225001 -0.79549998 0.3035 4288230297
-4.5795002 -1.8625 0.51050001 4288230297
-4.1494999 -1.5275 0.032499999 4288230297
-4.4714999 -1.7825 -0.1285 4288230297
-4.4095001 -1.7335 -0.1285 4288230297
-4.3724999 -1.7045 -0.1285 4288230297
-4.3565001 -1.6914999 -0.1285 4288230297
-4.4825001 -1.7905 -0.1275 4288230297
-4.4815001 -1.7895 -0.080499999 4288230297
-4.4805002 -1.7815 -0.075500004 4288230297
-4.4844999 -1.7915 -0.0605 4288230297
-4.4815001 -1.7875 -0.049500003 4288230297
-4.4825001 -1.7895 -0.029500002 4288230297
-4.4794998 -1.7875 -0.1205 4288230297
-4.4664998 -1.7775 -0.12450001 4288230297
-4.4765 -1.7855 -0.1125 4288230297
-4.4685001 -1.7795 -0.1155 4288230297
-4.4575 -1.7695 -0.1265 4288230297
-4.4485002 -1.7635 -0.12550001 4288230297
-4.4575 -1.7704999 -0.1155 4288230297
-4.4514999 -1.7654999 -0.1175 4288230297
-4.4664998 -1.7775 -0.1065 4288230297
-4.4724998 -1.7815 -0.1015 4288230297
-3.5634999 -1.0625 0.57249999 4288230297
-4.4664998 -1.7765 -0.096500002 4288230297
-4.3344998 -1.6725 0.032499999 4288230297
-4.4575 -1.7695 -0.1075 4288230297
-4.4495001 -1.7635 -0.1095 4288230297
-4.4584999 -1.7704999 -0.0995 4288230297
-4.4445 -1.7605 -0.1005 4288230297
-3.7815001 -1.2335 0.3775 4288230297
-4.4375 -1.7555 -0.12550001 4288230297
-4.4425001 -1.7575001 -0.1175 4288230297
-4.4345002 -1.7525001 -0.1125 4288230297
-4.4305 -1.7505 -0.1275 4288230297
-4.4245 -1.7455 -0.12450001 4288230297
-4.4264998 -1.7455 -0.11350001 4288230297
-4.4175 -1.7395 -0.1275 4288230297
-4.4175 -1.7375 -0.1175 4288230297
-3.4995 -1.0135 0.31849998 4288230297
-4.4324999 -1.7505 -0.1045 4288230297
-4.4274998 -1.7465 -0.098499998 4288230297
-4.4225001 -1.7424999 -0.1065 4288230297
-4.4165001 -1.7385 -0.098499998 4288230297
-4.4784999 -1.7855 -0.094500005 4288230297
-4.4724998 -1.7805001 -0.089500003 4288230297
-4.0135002 -1.4195 -0.1045 4288230297
-4.4685001 -1.7785 -0.082500003 4288230297
-4.4584999 -1.7715 -0.090500005 4288230297
-4.4505 -1.7654999 -0.094500005 4288230297
-4.4485002 -1.7625 -0.085500002 4288230297
-4.4724998 -1.7805001 -0.067500003 4288230297
-4.4645 -1.7755001 -0.072499998 4288230297
-4.4555001 -1.7675 -0.079500005 4288230297
-4.4615002 -1.7725 -0.064500004 4288230297
-4.4565001 -1.7665 -0.067500003 4288230297
-4.4545002 -1.7595 -0.078500003 4288230297
-4.4435 -1.7595 -0.092500001 4288230297
-4.4365001 -1.7525001 -0.0955 4288230297
-4.4404998 -1.7565 -0.085500002 4288230297
-4.4345002 -1.7525001 -0.081500001 4288230297
-4.4315 -1.7505 -0.089500003 4288230297
-4.4245 -1.7445 -0.087499999 4288230297
-4.4175 -1.7385 -0.085500002 4288230297
-4.4454999 -1.7585 -0.078500003 4288230297
-4.4384999 -1.7455 -0.075500004 4288230297
-4.4254999 -1.7415 -0.077500001 4288230297
-4.4054999 -1.7295001 -0.1205 4288230297
-4.4145002 -1.7465 -0.0995 4288230297
-4.4115 -1.7345001 -0.1105 4288230297
-4.4045 -1.7285 -0.1065 4288230297
-4.4095001 -1.7325 -0.098499998 4288230297
-4.4045 -1.7285 -0.091499999 4288230297
-4.4115 -1.7335 -0.083500005 4288230297
-4.3994999 -1.7245001 -0.12450001 4288230297
-4.3924999 -1.7185 -0.1265 4288230297
-4.3864999 -1.7135 -0.1225 4288230297
-4.3955002 -1.7215 -0.11650001 4288230297
-4.3855 -1.7135 -0.1125 4288230297
-4.3985 -1.7235 -0.1045 4288230297
-4.3915 -1.7175 -0.1065 4288230297
-4.3994999 -1.7245001 -0.096500002 4288230297
-4.3895001 -1.7165 -0.098499998 4288230297
-4.3794999 -1.7085 -0.1265 4288230297
-4.3715 -1.7025 -0.1205 4288230297
-4.3765001 -1.7065001 -0.1125 4288230297
-4.3664999 -1.6985 -0.1275 4288230297
-4.3645 -1.6964999 -0.1125 4288230297
-4.3695002 -1.7005 -0.1065 4288230297
-4.3794999 -1.7085 -0.1025 4288230297
-4.3685002 -1.7005 -0.098499998 4288230297
-4.3594999 -1.6925 -0.1175 4288230297
-4.3614998 -1.6935 -0.1045 4288230297
-4.3534999 -1.6875 -0.1045 4288230297
-4.4015002 -1.7255 -0.0845 4288230297
-4.3915 -1.7175 -0.089500003 4288230297
-4.3944998 -1.7194999 -0.081500001 4288230297
-4.3864999 -1.7135 -0.083500005 4288230297
-4.4004998 -1.7235 -0.076500006 4288230297
-4.3845 -1.7055 -0.076500006 4288230297
-4.3825002 -1.7105 -0.094500005 4288230297
-4.3765001 -1.7065001 -0.089500003 4288230297
-4.3695002 -1.7005 -0.089500003 4288230297
-4.3785 -1.7075 -0.081500001 4288230297
-4.3715 -1.7015001 -0.081500001 4288230297
-4.3635001 -1.6964999 -0.082500003 4288230297
-3.0065 -0.62550002 0.2545 4288230297
-4.3635001 -1.6955 -0.094500005 4288230297
-4.3565001 -1.6895 -0.092500001 4288230297
-4.3525 -1.6865 -0.082500003 4288230297
-4.3604999 -1.6905 -0.077500001 4288230297
-4.4784999 -1.7855 -0.0625 4288230297
-2.8824999 -0.52850002 0.36250001 4288230297
-4.4695001 -1.7775 -0.056500003 4288230297
-4.4745002 -1.7835 -0.0535 4288230297
-4.4645 -1.7755001 -0.049500003 4288230297
-4.4594998 -1.7615 -0.057500001 4288230297
-4.4584999 -1.7704999 -0.052500002 4288230297
-4.4505 -1.7685 -0.055500004 4288230297
-4.4784999 -1.7875 -0.041500002 4288230297
-4.4685001 -1.7795 -0.0425 4288230297
-4.4745002 -1.7835 -0.032499999 4288230297
-4.4675002 -1.7775 -0.032499999 4288230297
-4.4604998 -1.7735 -0.0425 4288230297
-3.8525 -1.2965 -0.62449998 4288230297
-4.4524999 -1.7665 -0.046500001 4288230297
-4.4495001 -1.7635 -0.039500002 4288230297
-4.4464998 -1.7615 -0.049500003 4288230297
-4.4415002 -1.7565 -0.059500001 4288230297
-4.4324999 -1.7445 -0.0625 4288230297
-4.4345002 -1.7525001 -0.0515 4288230297
-4.4295001 -1.7475001 -0.055500004 4288230297
-4.4204998 -1.7395 -0.0605 4288230297
-4.4165001 -1.7375 -0.052500002 4288230297
-4.4404998 -1.7565 -0.047500003 4288230297
-4.4324999 -1.7505 -0.043499999 4288230297
-4.4435 -1.7585 -0.037500001 4288230297
-4.4355001 -1.7525001 -0.035500005 4288230297
-4.4295001 -1.7575001 -0.0405 4288230297
-4.4245 -1.7445 -0.046500001 4288230297
-4.4274998 -1.7465 -0.037500001 4288230297
-2.6784999 -0.36849999 0.54250002 4288230297
-4.4194999 -1.7405 -0.035500005 4288230297
-4.4765 -1.7855 -0.017500002 4288230297
-4.4685001 -1.7795 -0.021500001 4288230297
-4.4604998 -1.7715 -0.030500002 4288230297
-4.4514999 -1.7654999 -0.030500002 4288230297
-4.4584999 -1.7704999 -0.022500001 4288230297
-4.4495001 -1.7635 -0.020500001 4288230297
-4.4695001 -1.7785 -0.0135 4288230297
-4.4784999 -1.7865 -0.0055000037 4288230297
-4.4724998 -1.7815 -0.0035000003 4288230297
-4.4645 -1.7755001 -0.0055000037 4288230297
-4.4584999 -1.7704999 -0.0095000016 4288230297
-4.4514999 -1.7645 -0.0085000023 4288230297
-4.4454999 -1.7605 -0.0135 4288230297
-4.4475002 -1.7625 -0.0015000011 4288230297
-4.4435 -1.7595 -0.028500002 4288230297
-4.4375 -1.7535 -0.027500002 4288230297
-4.4404998 -1.7565 -0.018500002 4288230297
-4.4245 -1.7445 -0.025500003 4288230297
-4.4315 -1.7495 -0.017500002 4288230297
-4.4235001 -1.7424999 -0.017500002 4288230297
-4.4404998 -1.7565 -0.0085000023 4288230297
-4.4324999 -1.7485 -0.0085000023 4288230297
-4.4165001 -1.7385 -0.0135 4288230297
-4.4184999 -1.7385 -0.0035000003 4288230297
-4.4085002 -1.7305 -0.0605 4288230297
-4.4045 -1.7285 -0.0535 4288230297
-4.4085002 -1.7315 -0.0405 4288230297
-4.4115 -1.7335 -0.029500002 4288230297
-4.4115 -1.7325 -0.020500001 4288230297
-4.4085002 -1.7315 -0.0125 4288230297
-4.4105 -1.7415 -0.0055000037 4288230297
-4.4095001 -1.7325 -0.0015000011 4288230297
-3.0704999 -0.67549998 -0.027500002 4288230297
-4.3965001 -1.7225 -0.056500003 4288230297
-4.3994999 -1.7245001 -0.048500001 4288230297
-4.3895001 -1.7155 -0.0535 4288230297
-4.4015002 -1.7265 -0.032499999 4288230297
-4.3965001 -1.7225 -0.0405 4288230297
-4.3864999 -1.7145 -0.044500005 4288230297
-4.3885002 -1.7155 -0.036500003 4288230297
-4.3785 -1.7075 -0.058500003 4288230297
-4.3734999 -1.7005 -0.059500001 4288230297
-4.3825002 -1.7105 -0.0515 4288230297
-4.3755002 -1.7045 -0.050500002 4288230297
-4.3664999 -1.6985 -0.050500002 4288230297
-4.3794999 -1.7085 -0.0405 4288230297
-4.3724999 -1.7025 -0.0405 4288230297
-4.1265001 -1.5095 0.32249999 4288230297
-4.3715 -1.7015001 -0.032499999 4288230297
-4.3655 -1.6964999 -0.036500003 4288230297
-4.3585 -1.6914999 -0.058500003 4288230297
-4.3594999 -1.6925 -0.049500003 4288230297
-4.3555002 -1.6895 -0.038500004 4288230297
-4.4015002 -1.7265 -0.017500002 4288230297
-4.3965001 -1.7215 -0.025500003 4288230297
-4.3924999 -1.7265 -0.020500001 4288230297
-4.3924999 -1.7185 -0.017500002 4288230297
-4.3864999 -1.7135 -0.020500001 4288230297
-4.4015002 -1.7255 -0.0095000016 4288230297
-4.3934999 -1.7275 -0.010500002 4288230297
-4.3955002 -1.7215 -0.0055000037 4288230297
-4.3825002 -1.7105 -0.028500002 4288230297
-4.3685002 -1.6995 -0.022500001 4288230297
-4.3814998 -1.7105 -0.014500004 4288230297
-4.3734999 -1.7105 -0.015500003 4288230297
-4.3724999 -1.7025 -0.0125 4288230297
-4.3755002 -1.7045 -0.0035000003 4288230297
-4.3664999 -1.6975 -0.0095000016 4288230297
-4.3625002 -1.6945 -0.028500002 4288230297
-4.3555002 -1.6895 -0.025500003 4288230297
-4.3604999 -1.6935 -0.020500001 4288230297
-4.3585 -1.6914999 -0.0125 4288230297
-4.3565001 -1.6905 -0.004500004 4288230297
-4.3495002 -1.6855 -0.1285 4288230297
-4.3365002 -1.6755 -0.1285 4288230297
-4.2865 -1.6365 -0.1285 4288230297
-4.2795 -1.6305 -0.1285 4288230297
-4.2635002 -1.6195 -0.1285 4288230297
-4.2045002 -1.5714999 -0.1285 4288230297
-4.1925001 -1.5625 -0.1285 4288230297
-4.1834998 -1.5545 -0.1285 4288230297
-4.3464999 -1.6825 -0.1215 4288230297
-4.3455 -1.6815 -0.11350001 4288230297
-4.3315001 -1.6705 -0.12450001 4288230297
-4.3344998 -1.6735001 -0.1125 4288230297
-4.3274999 -1.6675 -0.1155 4288230297
-4.3435001 -1.6805 -0.10550001 4288230297
-4.3495002 -1.6855 -0.097500004 4288230297
-4.3365002 -1.6745 -0.1035 4288230297
-4.3414998 -1.6795 -0.096500002 4288230297
-4.3274999 -1.6675 -0.1065 4288230297
-4.3284998 -1.6684999 -0.096500002 4288230297
-4.6725001 -1.9355 0.59350002 4288230297
-4.3395 -1.6775 -0.088500001 4288230297
-4.3354998 -1.6725 -0.080499999 4288230297
-4.3515 -1.6855 -0.055500004 4288230297
-4.3445001 -1.6805 -0.050500002 4288230297
-4.3515 -1.6785001 -0.059500001 4288230297
-4.3425002 -1.6735001 -0.059500001 4288230297
-4.3334999 -1.6695 -0.057500001 4288230297
-4.3315001 -1.6705 -0.048500001 4288230297
-4.3515 -1.6865 -0.045500003 4288230297
-4.3435001 -1.6805 -0.0425 4288230297
-4.3445001 -1.6805 -0.034500003 4288230297
-4.3365002 -1.6745 -0.039500002 4288230297
-4.3255 -1.6655 -0.036500003 4288230297
-4.3495002 -1.6845 -0.029500002 4288230297
-4.3495002 -1.6845 -0.018500002 4288230297
-4.3395 -1.6765 -0.028500002 4288230297
-4.3365002 -1.6745 -0.019500002 4288230297
-4.3315001 -1.6695 -0.029500002 4288230297
-4.3284998 -1.6675 -0.018500002 4288230297
-4.3464999 -1.6825 -0.0085000023 4288230297
-3.8694999 -1.3045 0.39050001 4288230297
-4.3365002 -1.6745 -0.011500001 4288230297
-4.3295002 -1.6684999 -0.0085000023 4288230297
-4.3055 -1.6495 -0.1235 4288230297
-4.3055 -1.6505001 -0.1145 4288230297
-4.2965002 -1.6435 -0.12550001 4288230297
-4.2975001 -1.6435 -0.1145 4288230297
-4.2884998 -1.6365 -0.11350001 4288230297
-4.3055 -1.6495 -0.1065 4288230297
-4.3045001 -1.6485 -0.096500002 4288230297
-4.2934999 -1.6404999 -0.10550001 4288230297
-4.2995 -1.6445 -0.1015 4288230297
-4.2905002 -1.6375 -0.098499998 4288230297
-4.3354998 -1.6635 -0.078500003 4288230297
-3.2915001 -0.8495 0.5255 4288230297
-4.3055 -1.6505001 -0.085500002 4288230297
-4.2905002 -1.6375 -0.089500003 4288230297
-4.2975001 -1.6445 -0.085500002 4288230297
-4.2915001 -1.6385 -0.081500001 4288230297
-4.3045001 -1.6505001 -0.072499998 4288230297
-3.0834999 -0.68550003 0.48449999 4288230297
-4.2985001 -1.6445 -0.076500006 4288230297
-4.2965002 -1.6435 -0.064500004 4288230297
-4.2884998 -1.6355 -0.070500001 4288230297
-4.2835002 -1.6325001 -0.1065 4288230297
-4.2804999 -1.6305 -0.1185 4288230297
-4.2744999 -1.6245 -0.1195 4288230297
-4.2694998 -1.6245 -0.1265 4288230297
-4.2635002 -1.6275001 -0.1175 4288230297
-4.2585001 -1.6125 -0.1265 4288230297
-4.2605 -1.6145 -0.1155 4288230297
-4.2765002 -1.6275001 -0.1085 4288230297
-4.2824998 -1.6315 -0.096500002 4288230297
-4.2725 -1.6245 -0.0995 4288230297
-4.2694998 -1.6235 -0.1095 4288230297
-4.2635002 -1.6174999 -0.1025 4288230297
-4.2585001 -1.6125 -0.1065 4288230297
-3.5915 -1.1045001 -0.99949998 4288230297
-4.2505002 -1.6065 -0.1275 4288230297
-4.2455001 -1.6015 -0.1225 4288230297
-4.2525001 -1.6075 -0.11650001 4288230297
-3.6715 -1.1475 0.41749999 4288230297
-4.2424998 -1.6005 -0.1095 4288230297
-4.2535 -1.6085 -0.096500002 4288230297
-4.2445002 -1.6005 -0.096500002 4288230297
-4.2845001 -1.6325001 -0.078500003 4288230297
-4.2775002 -1.6275001 -0.090500005 4288230297
-4.2725 -1.6235 -0.085500002 4288230297
-4.2635002 -1.6165 -0.089500003 4288230297
-4.2635002 -1.6255 -0.086500004 4288230297
-4.2635002 -1.6174999 -0.081500001 4288230297
-4.2575002 -1.6115 -0.081500001 4288230297
-4.2765002 -1.6275001 -0.079500005 4288230297
-4.2795 -1.6285 -0.070500001 4288230297
-4.2635002 -1.6174999 -0.072499998 4288230297
-4.2694998 -1.6235 -0.066500001 4288230297
-4.2605 -1.6135 -0.064500004 4288230297
-4.2484999 -1.6045001 -0.083500005 4288230297
-4.2535 -1.6085 -0.074500002 4288230297
-4.2435002 -1.6035 -0.076500006 4288230297
-4.2515001 -1.6085 -0.066500001 4288230297
-4.2445002 -1.6005 -0.068500005 4288230297
-4.2395 -1.5965 -0.12550001 4288230297
-4.2305002 -1.5905 -0.12450001 4288230297
-4.2354999 -1.5944999 -0.11650001 4288230297
-4.2245002 -1.5865 -0.1155 4288230297
-4.2335 -1.5925 -0.1065 4288230297
-4.2255001 -1.5865 -0.1065 4288230297
-4.2395 -1.5975 -0.1025 4288230297
-4.2284999 -1.5895 -0.098499998 4288230297
-4.2424998 -1.5995001 -0.085500002 4288230297
-4.2354999 -1.5944999 -0.092500001 4288230297
-4.2275 -1.5885 -0.088500001 4288230297
-4.2325001 -1.5925 -0.079500005 4288230297
-4.2375002 -1.5955 -0.069499999 4288230297
-4.2294998 -1.5895 -0.071500003 4288230297
-4.3074999 -1.6515 -0.050500002 4288230297
-4.3035002 -1.6485 -0.059500001 4288230297
-4.2884998 -1.6355 -0.0625 4288230297
-4.2985001 -1.6445 -0.054500002 4288230297
-4.2925 -1.6385 -0.055500004 4288230297
-4.3045001 -1.6485 -0.0425 4288230297
-4.3074999 -1.6515 -0.033500001 4288230297
-4.2965002 -1.6425 -0.046500001 4288230297
-4.2884998 -1.6375 -0.045500003 4288230297
-4.2965002 -1.6415 -0.037500001 4288230297
-4.3055 -1.6495 -0.023500001 4288230297
-4.2985001 -1.6445 -0.029500002 4288230297
-2.7295001 -0.4095 0.3055 4288230297
-4.2884998 -1.6365 -0.029500002 4288230297
-4.3004999 -1.6465 -0.016500004 4288230297
-4.2944999 -1.6415 -0.021500001 4288230297
-4.3074999 -1.6515 -0.015500003 4288230297
-4.3074999 -1.6515 -0.0065000029 4288230297
-4.2985001 -1.6445 -0.0085000023 4288230297
-4.2905002 -1.6385 -0.0135 4288230297
-4.2835002 -1.6325001 -0.049500003 4288230297
-4.2855 -1.6335 -0.037500001 4288230297
-4.2814999 -1.6305 -0.0605 4288230297
-4.2735 -1.6255 -0.058500003 4288230297
-4.2765002 -1.6275001 -0.049500003 4288230297
-4.2665 -1.6275001 -0.0535 4288230297
-4.2635002 -1.6185 -0.049500003 4288230297
-4.2744999 -1.6255 -0.037500001 4288230297
-4.2694998 -1.6245 -0.045500003 4288230297
-4.2665 -1.6265 -0.034500003 4288230297
-4.2645001 -1.6185 -0.039500002 4288230297
-4.2595 -1.6125 -0.045500003 4288230297
-4.2585001 -1.6135 -0.036500003 4288230297
-4.2535 -1.6085 -0.057500001 4288230297
-4.2424998 -1.6005 -0.0605 4288230297
-4.2474999 -1.6045001 -0.0535 4288230297
-4.2484999 -1.6055 -0.045500003 4288230297
-4.2445002 -1.6005 -0.0405 4288230297
-4.2505002 -1.6065 -0.037500001 4288230297
-4.2855 -1.6335 -0.021500001 4288230297
-4.2845001 -1.6335 -0.010500002 4288230297
-4.2814999 -1.6315 -0.028500002 4288230297
-4.2765002 -1.6265 -0.024500003 4288230297
-4.2635002 -1.6174999 -0.031500001 4288230297
-4.2705002 -1.6225001 -0.017500002 4288230297
-4.2624998 -1.6174999 -0.023500001 4288230297
-4.2564998 -1.6105 -0.026500003 4288230297
-4.2585001 -1.6135 -0.016500004 4288230297
-4.2795 -1.6285 -0.015500003 4288230297
-4.2754998 -1.6265 -0.0085000023 4288230297
-4.2635002 -1.6185 -0.0095000016 4288230297
-4.2705002 -1.6225001 -0.0015000011 4288230297
-4.2564998 -1.6105 -0.0065000029 4288230297
-4.2494998 -1.6045001 -0.026500003 4288230297
-4.2435002 -1.6015 -0.031500001 4288230297
-4.2515001 -1.6065 -0.017500002 4288230297
-4.2424998 -1.6005 -0.021500001 4288230297
-4.2445002 -1.6025 -0.011500001 4288230297
-4.2465 -1.6035 -0.0025000006 4288230297
-4.2344999 -1.5935 -0.056500003 4288230297
-4.2275 -1.5885 -0.063500002 4288230297
-4.2364998 -1.5975 -0.049500003 4288230297
-4.2275 -1.5885 -0.0535 4288230297
-4.2325001 -1.5925 -0.043499999 4288230297
-4.2385001 -1.5965 -0.035500005 4288230297
-4.2284999 -1.5885 -0.036500003 4288230297
-4.2335 -1.5925 -0.029500002 4288230297
-4.2265 -1.5875 -0.026500003 4288230297
-4.2354999 -1.5944999 -0.019500002 4288230297
-4.2284999 -1.5885 -0.018500002 4288230297
-4.2325001 -1.5925 -0.010500002 4288230297
-4.2375002 -1.5965 -0.0055000037 4288230297
-4.2234998 -1.5855 -0.12550001 4288230297
-4.2164998 -1.5795 -0.1205 4288230297
-4.2105002 -1.5735 -0.1235 4288230297
-4.2105002 -1.5745 -0.1145 4288230297
-4.2045002 -1.5705 -0.1185 4288230297
-4.2185001 -1.5815001 -0.1105 4288230297
-4.2224998 -1.5835 -0.096500002 4288230297
-4.2145 -1.5785 -0.1005 4288230297
-4.2034998 -1.5695 -0.1075 4288230297
-4.2055001 -1.5725 -0.096500002 4288230297
-4.1945 -1.5625 -0.1205 4288230297
-3.8515 -1.2915 0.0044999965 4288230297
-4.1985002 -1.5655 -0.11350001 4288230297
-4.1925001 -1.5605 -0.1115 4288230297
-4.1964998 -1.5635 -0.1025 4288230297
-4.1834998 -1.5525 -0.1205 4288230297
-4.1764998 -1.5484999 -0.12450001 4288230297
-4.1764998 -1.5484999 -0.11650001 4288230297
-4.1684999 -1.5425 -0.1215 4288230297
-4.1634998 -1.5375 -0.1265 4288230297
-4.1694999 -1.5425 -0.1125 4288230297
-4.1615 -1.5365 -0.1145 4288230297
-4.1855001 -1.5555 -0.1085 4288230297
-4.1894999 -1.5595 -0.1015 4288230297
-4.1834998 -1.5535001 -0.0995 4288230297
-4.1764998 -1.5484999 -0.1085 4288230297
-4.1615 -1.5365 -0.1045 4288230297
-4.1735001 -1.5455 -0.1005 4288230297
-4.1665001 -1.5395 -0.098499998 4288230297
-4.2185001 -1.5805 -0.088500001 4288230297
-4.2125001 -1.5755 -0.090500005 4288230297
-4.2195001 -1.5825 -0.080499999 4288230297
-4.2115002 -1.5755 -0.082500003 4288230297
-4.2055001 -1.5714999 -0.088500001 4288230297
-4.2055001 -1.5705 -0.076500006 4288230297
-4.1975002 -1.5655 -0.094500005 4288230297
-4.1975002 -1.5645 -0.082500003 4288230297
-4.1915002 -1.5605 -0.090500005 4288230297
-4.1845002 -1.5545 -0.088500001 4288230297
-4.1764998 -1.5484999 -0.089500003 4288230297
-4.1704998 -1.5425 -0.091499999 4288230297
-4.1615 -1.5365 -0.089500003 4288230297
-4.1704998 -1.5434999 -0.081500001 4288230297
-4.1875 -1.5565 -0.076500006 4288230297
-4.1824999 -1.5455 -0.075500004 4288230297
-4.1655002 -1.5365 -0.075500004 4288230297
-4.2205 -1.5845 -0.048500001 4288230297
-4.2195001 -1.5805 -0.056500003 4288230297
-4.2125001 -1.5765001 -0.056500003 4288230297
-4.2145 -1.5785 -0.048500001 4288230297
-4.2075 -1.5705 -0.058500003 4288230297
-4.2045002 -1.5705 -0.050500002 4288230297
-4.2214999 -1.5845 -0.037500001 4288230297
-4.2084999 -1.5735 -0.0405 4288230297
-4.2164998 -1.5795 -0.032499999 4288230297
-4.2075 -1.5725 -0.032499999 4288230297
-4.2024999 -1.5625 -0.059500001 4288230297
-4.1964998 -1.5645 -0.054500002 4288230297
-4.1975002 -1.5655 -0.046500001 4288230297
-4.1925001 -1.5615 -0.0405 4288230297
-4.2005 -1.5675 -0.035500005 4288230297
-4.1904998 -1.5565 -0.059500001 4288230297
-4.1884999 -1.5585001 -0.049500003 4288230297
-4.7195001 -1.9755 0.1425 4288230297
-4.1815 -1.5525 -0.054500002 4288230297
-4.1754999 -1.5465 -0.056500003 4288230297
-4.1684999 -1.5415 -0.056500003 4288230297
-4.1715002 -1.5445 -0.049500003 4288230297
-4.1615 -1.5365 -0.0515 4288230297
-4.1815 -1.5525 -0.043499999 4288230297
-4.1915002 -1.5605 -0.032499999 4288230297
-4.1855001 -1.5555 -0.034500003 4288230297
-4.1774998 -1.5495 -0.033500001 4288230297
-4.1655002 -1.5405 -0.0425 4288230297
-4.1684999 -1.5415 -0.032499999 4288230297
-4.2195001 -1.5825 -0.024500003 4288230297
-4.2185001 -1.5815001 -0.016500004 4288230297
-4.2105002 -1.5745 -0.021500001 4288230297
-4.2014999 -1.5685 -0.026500003 4288230297
-4.2034998 -1.5695 -0.016500004 4288230297
-4.2145 -1.5775 -0.0085000023 4288230297
-4.2205 -1.5835 -0.0065000029 4288230297
-4.2034998 -1.5695 -0.0015000011 4288230297
-4.1925001 -1.5615 -0.024500003 4288230297
-4.1925001 -1.5605 -0.014500004 4288230297
-4.1975002 -1.5655 -0.010500002 4288230297
-4.1925001 -1.5615 -0.0055000037 4288230297
-4.1855001 -1.5565 -0.019500002 4288230297
-4.1774998 -1.5484999 -0.021500001 4288230297
-4.1655002 -1.5405 -0.024500003 4288230297
-4.1704998 -1.5434999 -0.018500002 4288230297
-4.1615 -1.5365 -0.016500004 4288230297
-4.1815 -1.5525 -0.011500001 4288230297
-4.1735001 -1.5465 -0.011500001 4288230297
-4.1684999 -1.5425 -0.0065000029 4288230297
-4.1545 -1.5325 -0.1285 4288230297
-4.1255002 -1.5095 -0.1285 4288230297
-4.1164999 -1.5025001 -0.1285 4288230297
-4.1485 -1.5255001 -0.1235 4288230297
-4.1545 -1.5305001 -0.1195 4288230297
-4.1504998 -1.5275 -0.1125 4288230297
-4.1415 -1.5215 -0.1275 4288230297
-4.1434999 -1.5225 -0.1145 4288230297
-4.1335001 -1.5145 -0.1205 4288230297
-4.1545 -1.5305001 -0.10550001 4288230297
-4.1585002 -1.5335 -0.097500004 4288230297
-4.1515002 -1.5285 -0.097500004 4288230297
-4.1415 -1.5204999 -0.1025 4288230297
-4.1325002 -1.5135 -0.1095 4288230297
-4.1304998 -1.5125 -0.1005 4288230297
-4.1265001 -1.5085 -0.1195 4288230297
-4.1224999 -1.5055 -0.1025 4288230297
-3.1975 -0.7755 0.29550001 4288230297
-4.1185002 -1.5025001 -0.1175 4288230297
-4.1094999 -1.4955 -0.12450001 4288230297
-4.1015 -1.4895 -0.12450001 4288230297
-4.1055002 -1.4924999 -0.1175 4288230297
-4.1155 -1.4995 -0.1095 4288230297
-4.1125002 -1.4965 -0.1025 4288230297
-4.1164999 -1.5025001 -0.096500002 4288230297
-4.4295001 -1.7575001 0.1885 4288230297
-4.1044998 -1.4915 -0.10550001 4288230297
-4.0974998 -1.4855 -0.1105 4288230297
-4.1545 -1.5305001 -0.088500001 4288230297
-4.1455002 -1.5245 -0.092500001 4288230297
-4.1504998 -1.5285 -0.080499999 4288230297
-4.1434999 -1.5225 -0.0845 4288230297
-4.1345 -1.5154999 -0.093500003 4288230297
-4.1374998 -1.5175 -0.082500003 4288230297
-4.1285 -1.5115 -0.085500002 4288230297
-4.1455002 -1.5215 -0.076500006 4288230297
-4.1244998 -1.5075001 -0.091499999 4288230297
-4.1215 -1.5045 -0.082500003 4288230297
-4.1125002 -1.4974999 -0.080499999 4288230297
-4.1065001 -1.4935 -0.094500005 4288230297
-4.1005001 -1.4885 -0.086500004 4288230297
-4.1244998 -1.4985 -0.075500004 4288230297
-4.1055002 -1.4835 -0.077500001 4288230297
-4.1694999 -1.5345 -0.0605 4288230297
-4.1605 -1.5355 -0.037500001 4288230297
-4.1605 -1.5355 -0.0065000029 4288230297
-4.1564999 -1.5315 -0.058500003 4288230297
-4.1475 -1.5225 -0.059500001 4288230297
-4.1545 -1.5315 -0.048500001 4288230297
-4.3274999 -1.6645 0.58649999 4288230297
-4.1465001 -1.5245 -0.049500003 4288230297
-4.1405001 -1.5204999 -0.055500004 4288230297
-4.1325002 -1.5145 -0.057500001 4288230297
-4.1374998 -1.5175 -0.048500001 4288230297
-4.1294999 -1.5115 -0.049500003 4288230297
-4.1515002 -1.5285 -0.0405 4288230297
-4.1444998 -1.5245 -0.038500004 4288230297
-4.1355 -1.5154999 -0.0405 4288230297
-4.1285 -1.5105 -0.041500002 4288230297
-4.1355 -1.5154999 -0.032499999 4288230297
-4.1285 -1.5105 -0.032499999 4288230297
-4.1255002 -1.5065 -0.058500003 4288230297
-4.1234999 -1.5065 -0.047500003 4288230297
-4.1205001 -1.5055 -0.037500001 4288230297
-3.7835 -1.2345001 0.55849999 4288230297
-4.1125002 -1.4915 -0.058500003 4288230297
-4.1174998 -1.5015 -0.055500004 4288230297
-4.1114998 -1.4974999 -0.050500002 4288230297
-4.1015 -1.4895 -0.055500004 4288230297
-2.9395001 -0.5715 0.63950002 4288230297
-4.1125002 -1.4974999 -0.038500004 4288230297
-4.1055002 -1.4924999 -0.045500003 4288230297
-4.1055002 -1.4924999 -0.034500003 4288230297
-4.1005001 -1.4885 -0.039500002 4288230297
-4.0984998 -1.4875 -0.047500003 4288230297
-4.1574998 -1.5335 -0.029500002 4288230297
-4.1515002 -1.5285 -0.027500002 4288230297
-4.1564999 -1.5325 -0.021500001 4288230297
-4.1475 -1.5255001 -0.016500004 4288230297
-4.1434999 -1.5225 -0.029500002 4288230297
-4.1335001 -1.5145 -0.024500003 4288230297
-4.1395001 -1.5195 -0.021500001 4288230297
-4.1325002 -1.5145 -0.016500004 4288230297
-4.1515002 -1.5275 -0.0085000023 4288230297
-4.1444998 -1.5235 -0.0075000026 4288230297
-4.1374998 -1.5185 -0.011500001 4288230297
-4.1285 -1.5105 -0.010500002 4288230297
-4.1224999 -1.5055 -0.029500002 4288230297
-4.1265001 -1.5095 -0.021500001 4288230297
-4.1215 -1.5045 -0.017500002 4288230297
-4.1244998 -1.5085 -0.0025000006 4288230297
-4.1135001 -1.4985 -0.024500003 4288230297
-4.1065001 -1.4935 -0.024500003 4288230297
-4.1005001 -1.4885 -0.019500002 4288230297
-4.1145 -1.4995 -0.014500004 4288230297
-4.1094999 -1.4955 -0.0085000023 4288230297
-4.0974998 -1.4865 -0.0085000023 4288230297
-3.5655 -1.0645 0.15449999 4288230297
-2.7065001 -0.39050001 0.42649999 4288230297
-4.7515001 -1.9975001 0.53750002 4288230297
-2.9805 -0.60350001 0.53149998 4288230297
-4.5584998 -1.8485 0.34150001 4288230297
-3.7305 -1.1945 0.035500001 4288230297
-3.7685001 -1.2244999 0.3125 4288230297
-3.1835001 -0.76550001 0.26249999 4288230297
-3.6194999 -1.1065 0.59149998 4288230297
-4.6954999 -1.9565001 0.2735 4288230297
-3.6905 -1.1635 0.21249999 4288230297
-4.2954998 -1.6395 0.25549999 4288230297
-3.6854999 -1.1575 0.61750001 4288230297
-4.2024999 -1.5675 0.4675 4288230297
-3.9684999 -1.3835 0.41049999 4288230297
-4.3484998 -1.6815 0.36849999 4288230297
-4.3924999 -1.7175 0.3105 4288230297
-3.9284999 -1.3525 0.26749998 4288230297
-2.7275 -0.40650001 0.4905 4288230297
-4.1355 -1.5165 0.074499995 4288230297
-3.4405 -0.97049999 0.055500001 4288230297
-2.9825001 -0.60549998 0.59649998 4288230297
-3.4695001 -0.98949999 0.2475 4288230297
-4.4105 -1.7305 0.45449999 4288230297
-2.6735001 -0.3635 0.61150002 4288230297
-4.7385001 -2.0005 0.37650001 4288230297
-4.2505002 -1.6055 0.38949999 4288230297
-3.2375 -0.8075 0.36449999 4288230297
-2.9735 -0.59850001 0.49649999 4288230297
-2.7744999 -0.44549999 0.1525 4288230297
-4.0735002 -1.4795001 -0.62950003 4288230297
-3.3065 -0.86150002 0.4675 4288230297
-4.6195002 -1.8965 0.23549999 4288230297
-4.1234999 -1.5065 0.2615 4288230297
-2.9435 -0.5765 0.55250001 4288230297
-4.4955001 -1.8005 0.0034999968 4288230297
-2.7365 -0.41550002 -0.076500006 4288230297
-3.1675 -0.7525 0.4815 4288230297
-3.5815001 -1.0985 -1.0065 4288230297
-3.8275001 -1.2725 0.069499999 4288230297
-1.3195 0.69849998 0.69449997 4288230297
-2.7465 -0.4215 0.56050003 4288230297
-2.9784999 -0.60350001 0.40149999 4288230297
-3.5204999 -1.0305001 0.012499997 4288230297
-2.7295001 -0.4095 0.2735 4288230297
-2.6224999 -0.32449999 0.39750001 4288230297
-4.1995001 -1.5664999 0.1945 4288230297
-4.3385 -1.6735001 0.5115 4288230297
-4.7175002 -1.9725 0.3985 4288230297
-2.9755001 -0.60250002 0.35249999 4288230297
-3.0545001 -0.66250002 0.4355 4288230297
-4.4794998 -1.7855 0.42649999 4288230297
-4.3685002 -1.6985 0.085500002 4288230297
-3.4075 -0.94050002 0.2255 4288230297
-4.0574999 -1.4555 -0.027500002 4288230297
-3.6085 -1.0985 0.3545 4288230297
-4.6455002 -1.9135 0.53649998 4288230297
-3.9235001 -1.3485 0.1265 4288230297
-3.7835 -1.2365 0.013499997 4288230297
-4.2944999 -1.6385 0.52249998 4288230297
-4.0805001 -1.4725 -0.041500002 4288230297
-3.3724999 -0.91250002 0.52149999 4288230297
-4.3014998 -1.6465 0.13249999 4288230297
-4.3755002 -1.7125 0.22149999 4288230297
-3.9795001 -1.3925 -0.62950003 4288230297
-4.2515001 -1.6055 0.44850001 4288230297
-3.4755001 -0.99550003 0.070500001 4288230297
-2.6424999 -0.3425 0.2705 4288230297
-3.9365001 -1.3585 0.30849999 4288230297
-4.1525002 -1.5255001 0.6415 4288230297
-4.2494998 -1.6055 0.1875 4288230297
-4.6455002 -1.9135 0.55849999 4288230297
-4.0764999 -1.4655 0.58749998 4288230297
-3.1365001 -0.72850001 0.3175 4288230297
-3.7965 -1.2485 0.4395 4288230297
-3.2375 -0.80849999 0.3125 4288230297
-4.4755001 -1.7835 0.0094999988 4288230297
-3.8555 -1.2945 -0.064500004 4288230297
-2.8385 -0.49450001 -0.079500005 4288230297
-3.3505001 -0.8955 0.48050001 4288230297
-3.3475001 -0.89450002 0.1075 4288230297
-3.9135001 -1.3415 0.066500001 4288230297
-3.1335001 -0.72750002 0.047499999 4288230297
-4.2934999 -1.6375 0.56849998 4288230297
-4.7494998 -1.9965 0.1215 4288230297
-3.3145001 -0.88249999 -0.64050001 4288230297
-2.6055 -0.32350001 -0.62849998 4288230297
-4.1675 -1.5385 0.55449998 4288230297
-3.6505001 -1.1325001 0.052499998 4288230297
-4.2535 -1.6085 0.32550001 4288230297
-4.6325002 -1.9045 0.36149999 4288230297
-4.3354998 -1.6735001 0.091499999 4288230297
-4.2175002 -1.5765001 0.6275 4288230297
-3.2045 -0.78250003 0.64349997 4288230297
-4.7674999 -2.0095 0.26949999 4288230297
-3.2425001 -0.81150001 0.29449999 4288230297
-2.6585 -0.35350001 0.27450001 4288230297
-2.8175001 -0.47850001 0.22749999 4288230297
-4.3695002 -1.6975 0.5165 4288230297
-3.1205001 -0.71649998 0.2105 4288230297
-2.7895 -0.45649999 0.16249999 4288230297
-3.0355 -0.64850003 0.16849999 4288230297
-3.3875 -0.92549998 0.1155 4288230297
-3.8605001 -1.2975 0.4395 4288230297
-4.0774999 -1.4865 -0.62950003 4288230297
-3.5695 -1.0675 0.55849999 4288230297
-4.2535 -1.6105 0.2075 4288230297
-2.6675 -0.36050001 -0.036500003 4288230297
-3.2065001 -0.78350002 0.2185 4288230297
-3.5545001 -1.0555 0.45550001 4288230297
-3.4614999 -0.98250002 0.28549999 4288230297
-4.2865 -1.6305 0.64050001 4288230297
-2.6005001 -0.3105 -0.6455 4288230297
-4.7605 -2.0055001 0.050499998 4288230297
-3.2474999 -0.81950003 -0.6415 4288230297
-3.4535 -0.97549999 0.62650001 4288230297
-3.3445001 -0.8915 0.57749999 4288230297
-2.7165 -0.4005 0.067499995 4288230297
-3.5125 -1.0245 0.2735 4288230297
-4.6455002 -1.9175 0.51050001 4288230297
-4.4105 -1.7315 0.36250001 4288230297
-3.6205001 -1.1085 0.1415 4288230297
-4.6545 -1.9225 0.4835 4288230297
-4.1764998 -1.5484999 0.029499998 4288230297
-3.4814999 -1.0125 -1.0035 4288230297
-4.3404999 -1.6755 0.32249999 4288230297
-3.7865 -1.2375 0.39649999 4288230297
-2.8664999 -0.51450002 0.59149998 4288230297
-4.1164999 -1.4974999 0.58649999 4288230297
-3.3104999 -0.8635 0.2145 4288230297
-3.1545 -0.74349999 0.035500001 4288230297
-3.8145001 -1.2615 0.29249999 4288230297
-3.5244999 -1.0345 0.0064999997 4288230297
-2.7195001 -0.40150002 -0.018500002 4288230297
-2.7674999 -0.43850002 0.2245 4288230297
-2.8815 -0.52850002 -0.091499999 4288230297
-3.2474999 -0.81550002 0.38350001 4288230297
-4.0145001 -1.4215 0.1045 4288230297
-3.8095 -1.2555 0.5675 4288230297
-4.1444998 -1.5204999 0.60350001 4288230297
-4.0064998 -1.4115 0.62550002 4288230297
-3.2505 -0.8175 0.3915 4288230297
-2.6854999 -0.37450001 0.39649999 4288230297
-3.9974999 -1.4045 0.5205 4288230297
-3.5165 -1.0275 0.1375 4288230297
-4.0644999 -1.4595 0.1805 4288230297
-4.0454998 -1.4425 0.62150002 4288230297
-3.9365001 -1.3565 0.60350001 4288230297
-2.7365 -0.4145 0.5345 4288230297
-4.1774998 -1.5495 0.048499998 4288230297
-3.4514999 -0.97549999 0.4515 4288230297
-4.4384999 -1.7535 0.39750001 4288230297
-3.9895 -1.4005001 0.096500002 4288230297
-3.4365001 -0.96350002 0.067499995 4288230297
-3.4744999 -0.99449998 0.13949999 4288230297
-3.8824999 -1.3164999 0.083499998 4288230297
-4.5235 -1.8205 0.12249999 4288230297
-4.5735002 -1.8575 0.48550001 4288230297
-3.1215 -0.71850002 0.26449999 4288230297
-4.4124999 -1.7305 0.49349999 4288230297
-3.9295001 -1.3535 0.1785 4288230297
-3.8505001 -1.2905 0.2465 4288230297
-3.3564999 -0.9005 0.61049998 4288230297
-4.4064999 -1.7265 0.53750002 4288230297
-2.7395 -0.4165 0.36050001 4288230297
-3.4535 -0.97649997 0.53049999 4288230297
-4.1945 -1.5625 0.089499995 4288230297
-3.6365001 -1.1215 0.042499997 4288230297
-4.6845002 -1.9475 0.1075 4288230297
-4.4115 -1.7424999 0.34650001 4288230297
-4.1125002 -1.4974999 0.23450001 4288230297
-4.7614999 -2.0055001 0.63150001 4288230297
-2.6315 -0.33050001 0.56650001 4288230297
-3.1905 -0.77149999 0.24250001 4288230297
-3.6275001 -1.1145 0.0034999968 4288230297
-3.8364999 -1.2795 0.1965 4288230297
-3.7084999 -1.1745 0.6415 4288230297
-3.6775 -1.1535 0.27649999 4288230297
-3.6494999 -1.1315 0.16249999 4288230297
-3.7414999 -1.2025 0.1135 4288230297
-3.5875001 -1.0825 0.1235 4288230297
-2.6995001 -0.38550001 0.1725 4288230297
-3.2535 -0.81950003 0.62050003 4288230297
-4.6665001 -1.9335001 0.1635 4288230297
-4.4035001 -1.7235 0.6135 4288230297
-2.9705 -0.59750003 -0.1145 4288230297
-3.4345 -0.9605 0.60549998 4288230297
-3.3405001 -0.88849998 0.1865 4288230297
-2.9454999 -0.57749999 0.56650001 4288230297
-3.9365001 -1.3595001 -0.0055000037 4288230297
-4.0025001 -1.4115 0.19750001 4288230297
-4.6185002 -1.8975 0.28650001 4288230297
-4.6615 -1.9265 0.57950002 4288230297
-4.7065001 -1.9645 0.56550002 4288230297
-3.5985 -1.0905 0.014499997 4288230297
-2.7595 -0.43349999 0.1505 4288230297
-4.0005002 -1.4085 0.36849999 4288230297
-3.2644999 -0.82849997 0.27849999 4288230297
-3.2365 -0.80650002 0.64450002 4288230297
-3.3985 -0.93349999 0.4025 4288230297
-2.9955001 -0.61750001 -0.1095 4288230297
-2.9944999 -0.61650002 0.43849999 4288230297
-3.6975 -1.1684999 0.1805 4288230297
-3.7655001 -1.2205 0.44049999 4288230297
-2.8694999 -0.51850003 0.3175 4288230297
-3.1784999 -0.7615 0.059499998 4288230297
-4.7515001 -1.9975001 0.2155 4288230297
-4.6824999 -1.9455 0.2545 4288230297
-2.7465 -0.4215 0.63349998 4288230297
-2.8845 -0.53049999 0.1285 4288230297
-3.4245 -0.95450002 0.28850001 4288230297
-2.6854999 -0.37549999 0.2445 4288230297
-4.1764998 -1.5475 0.3935 4288230297
-3.9284999 -1.3655 -0.62550002 4288230297
-3.5395 -1.0455 0.018499998 4288230297
-4.1304998 -1.5115 0.37849998 4288230297
-3.6775 -1.1535 0.2405 4288230297
-3.6494999 -1.1305 0.30050001 4288230297
-4.5064998 -1.8085001 0.055500001 4288230297
-2.6105001 -0.33149999 -0.7475 4288230297
-3.4065001 -0.94050002 0.13149999 4288230297
-2.8685 -0.51850003 0.072499998 4288230297
-2.9195001 -0.55650002 0.46649998 4288230297
-3.7974999 -1.2495 0.42050001 4288230297
-4.0215001 -1.4265 0.059499998 4288230297
-3.9885001 -1.3975 0.57849997 4288230297
-4.2465 -1.6015 0.46450001 4288230297
-3.5295 -1.0375 0.23549999 4288230297
-4.6554999 -1.9255 0.2705 4288230297
-3.5474999 -1.0485001 0.61949998 4288230297
-3.4195001 -0.9515 0.1585 4288230297
-3.6935 -1.1665 0.024499996 4288230297
-4.4604998 -1.7685 0.64050001 4288230297
-4.4345002 -1.7515 0.25349998 4288230297
-3.0895 -0.6925 0.2385 4288230297
-4.2145 -1.5765001 0.4835 4288230297
-3.8625 -1.3005 0.3055 4288230297
-3.2355001 -0.80650002 0.4445 4288230297
-4.7224998 -1.9775 0.25549999 4288230297
-3.1445 -0.73449999 0.50749999 4288230297
-2.9875 -0.61150002 -0.049500003 4288230297
-3.6724999 -1.1485 0.2455 4288230297
-3.4045 -0.93849999 0.64349997 4288230297
-3.9775 -1.3885 0.56349999 4288230297
-4.6335001 -1.9065 0.39050001 4288230297
-2.8255 -0.48449999 0.43649998 4288230297
-4.3484998 -1.6825 0.2085 4288230297
-4.7205 -1.9775 0.3035 4288230297
-4.0914998 -1.4785 0.60949999 4288230297
-4.3484998 -1.6815 0.43450001 4288230297
-3.4554999 -0.97850001 0.33050001 4288230297
-3.3985 -0.9325 0.52950001 4288230297
-4.6595001 -1.9255 0.50050002 4288230297
-3.8835001 -1.3164999 0.32049999 4288230297
-4.2645001 -1.6195 0.040499996 4288230297
-3.8185 -1.2654999 0.15349999 4288230297
-2.9584999 -0.58850002 0.17749999 4288230297
-3.2995 -0.85650003 0.3125 4288230297
-3.3385 -0.8955 -0.9795 4288230297
-3.4855001 -1.0015 0.49649999 4288230297
-3.3965001 -0.9325 0.022499997 4288230297
-3.5014999 -1.0135 0.58249998 4288230297
-4.5174999 -1.8145 0.3725 4288230297
-2.8794999 -0.52749997 -0.030500002 4288230297
-2.7665 -0.4355 0.6135 4288230297
-2.8345001 -0.49149999 0.52749997 4288230297
-4.3915 -1.7165 0.2755 4288230297
-4.6335001 -1.9105 0.0024999974 4288230297
-4.2665 -1.6285 0.53649998 4288230297
-4.4035001 -1.7265 0.1885 4288230297
-3.6695001 -1.1465 0.3515 4288230297
-4.4085002 -1.7305 0.1505 4288230297
-4.0035 -1.4115 0.17550001 4288230297
-2.9275 -0.56449997 0.013499997 4288230297
-4.6475 -1.9215 0.0495 4288230297
-4.7484999 -1.9945 0.49450001 4288230297
-4.7125001 -1.9735 0.048499998 4288230297
-4.0914998 -1.4815 0.1565 4288230297
-4.4864998 -1.7905 0.5675 4288230297
-3.5085001 -1.0195 0.54449999 4288230297
-2.7855 -0.45449999 0.64349997 4288230297
-3.0885 -0.69349998 0.1595 4288230297
-2.7425001 -0.4375 -0.62150002 4288230297
-3.2665 -0.83050001 0.41850001 4288230297
-3.9985001 -1.4075 0.2035 4288230297
-3.2385001 -0.80849999 0.59549999 4288230297
-3.4895 -1.0055 0.37149999 4288230297
-4.2635002 -1.6275001 0.052499998 4288230297
-4.2895002 -1.6365 0.033499997 4288230297
-4.6224999 -1.8975 0.29350001 4288230297
-2.9235001 -0.56050003 0.52350003 4288230297
-3.5415001 -1.0465 0.13949999 4288230297
-3.2555001 -0.82249999 0.2965 4288230297
-3.6914999 -1.1635 0.5115 4288230297
-2.9335001 -0.56950003 0.015499996 4288230297
-2.6255 -0.3285 -0.052500002 4288230297
-3.7735 -1.2275 0.45649999 4288230297
-2.6115 -0.33050001 -1.3475 4288230297
-4.0285001 -1.4305 0.45050001 4288230297
-4.1715002 -1.5425 0.4585 4288230297
-4.2115002 -1.5745 0.40849999 4288230297
-3.7895 -1.2545 0.3565 4288230297
-2.8145001 -0.4765 -0.0085000023 4288230297
