# .PCD v0.7 - Point Cloud Data file format
VERSION 0.7
FIELDS x y z rgb
SIZE 4 4 4 4
TYPE F F F U
COUNT 1 1 1 1
WIDTH 1155
HEIGHT 1
VIEWPOINT 0 0 0 1 0 0 0
POINTS 1155
DATA ascii
-2.8125 -0.1795 -0.8545 4288230195
-3.0365 -0.35750002 -1.3765 4288230195
-3.8285 -0.97549999 -0.65850002 4288230195
-3.3585 -0.61949998 -0.87949997 4288230195
-2.8564999 -0.2145 -0.87349999 4288230195
-3.1795001 -0.46950001 -1.0675 4288230195
-3.4625001 -0.6925 -0.69349998 4288230195
-3.1435001 -0.44049999 -0.72049999 4288230195
-3.5285001 -0.75550002 -0.80449998 4288230195
-3.0785 -0.38949999 -1.3214999 4288230195
-4.0805001 -1.1785001 -0.88249999 4288230195
-3.1675 -0.4605 -0.66350001 4288230195
-2.9885001 -0.32050002 -0.7895 4288230195
-3.5664999 -0.7755 -0.75550002 4288230195
-3.1475 -0.44350001 -0.88749999 4288230195
-3.2625 -0.53549999 -1.0185 4288230195
-3.8034999 -0.96249998 -0.74049997 4288230195
-3.1064999 -0.41249999 -0.8725 4288230195
-3.0085001 -0.33450001 -1.3405 4288230195
-3.3264999 -0.5855 -0.75349998 4288230195
-3.3924999 -0.64749998 -1.0135 4288230195
-3.0945001 -0.4025 -1.3525 4288230195
-3.6135001 -0.81150001 -0.72049999 4288230195
-3.2535 -0.52749997 -1.2475001 4288230195
-3.2544999 -0.52749997 -0.74449998 4288230195
-2.9695001 -0.30450001 -0.97649997 4288230195
-3.2075 -0.4905 -1.0285 4288230195
-2.8585 -0.2165 -1.0085 4288230195
-3.3375001 -0.59450001 -0.85350001 4288230195
-2.8835001 -0.23550001 -1.1925 4288230195
-3.0875001 -0.39750001 -0.80250001 4288230195
-2.8125 -0.1805 -1.3965 4288230195
-3.0574999 -0.37349999 -0.9605 4288230195
-2.8475001 -0.2075 -0.81449997 4288230195
-3.7495 -0.91750002 -0.68550003 4288230195
-3.9944999 -1.1105 -0.77249998 4288230195
-3.2414999 -0.51850003 -0.92449999 4288230195
-3.0815001 -0.3915 -1.4025 4288230195
-3.3264999 -0.58450001 -0.86150002 4288230195
-3.7835 -0.94550002 -0.68150002 4288230195
-3.1554999 -0.45050001 -0.94550002 4288230195
-3.9905 -1.1095001 -0.90250003 4288230195
-2.9925001 -0.32249999 -1.3785 4288230195
-2.9875 -0.31850001 -1.0765001 4288230195
-3.4545 -0.69749999 -0.70550001 4288230195
-3.2615001 -0.53350002 -0.76749998 4288230195
-2.9905 -0.3215 -0.83950001 4288230195
-3.1215 -0.42449999 -0.92650002 4288230195
-3.2045 -0.48950002 -1.3385 4288230195
-3.4605 -0.70350003 -0.79250002 4288230195
-2.8805001 -0.2395 -0.77749997 4288230195
-2.7815001 -0.1565 -0.95550001 4288230195
-2.9435 -0.28350002 -1.2375 4288230195
-3.3515 -0.60949999 -1.2205 4288230195
-3.1684999 -0.46149999 -1.4175 4288230195
-2.9184999 -0.26350001 -0.9325 4288230195
-2.9215 -0.2665 -1.2745 4288230195
-3.2284999 -0.50950003 -0.97750002 4288230195
-4.0145001 -1.1275001 -0.8355 4288230195
-3.2155001 -0.49849999 -0.85250002 4288230195
-2.9635 -0.2985 -0.98949999 4288230195
-3.2555001 -0.52850002 -1.1805 4288230195
-2.8034999 -0.1725 -1.4075 4288230195
-3.2774999 -0.54650003 -1.0545 4288230195
-2.9855001 -0.31650001 -1.0295 4288230195
-3.2084999 -0.49349999 -1.4245 4288230195
-3.7795 -0.93349999 -0.83249998 4288230195
-3.9605 -1.0845 -0.6645 4288230195
-2.9505 -0.2895 -0.7475 4288230195
-2.9305 -0.27450001 -1.2995 4288230195
-2.9705 -0.3035 -0.76249999 4288230195
-2.8134999 -0.1805 -0.95649999 4288230195
-3.4765 -0.70550001 -0.75150001 4288230195
-3.2375 -0.51450002 -1.2424999 4288230195
-3.1394999 -0.4375 -0.77249998 4288230195
-3.2855 -0.5535 -1.1225001 4288230195
-2.9195001 -0.26449999 -1.1075 4288230195
-3.2925 -0.55849999 -0.77350003 4288230195
-2.9005001 -0.24950001 -1.2015001 4288230195
-2.9525001 -0.2915 -0.89050001 4288230195
-3.1585 -0.4535 -1.3345 4288230195
-3.9514999 -1.0775 -0.68949997 4288230195
-2.8845 -0.2375 -0.71450001 4288230195
-3.2375 -0.51550001 -0.7705 4288230195
-2.8405001 -0.2025 -1.3295 4288230195
-3.2195001 -0.50150001 -1.3065 4288230195
-3.3074999 -0.57050002 -1.2495 4288230195
-3.9545 -1.0795 -1.0025001 4288230195
-3.6115 -0.82249999 -0.79650003 4288230195
-3.0795 -0.39050001 -0.70950001 4288230195
-3.3724999 -0.61750001 -0.71850002 4288230195
-3.7155001 -0.89350003 -0.74849999 4288230195
-3.1745 -0.46650001 -0.93049997 4288230195
-3.1945 -0.4815 -1.1125 4288230195
-4.0405002 -1.1475 -0.89249998 4288230195
-3.7595 -0.93849999 -0.92750001 4288230195
-3.2344999 -0.51450002 -0.95050001 4288230195
-3.3405001 -0.59649998 -1.0154999 4288230195
-2.8735001 -0.22849999 -1.0775 4288230195
-2.7835 -0.1565 -1.2065001 4288230195
-2.7915001 -0.1635 -0.72350001 4288230195
-3.4295001 -0.67650002 -0.79750001 4288230195
-3.1025 -0.40850002 -1.3595001 4288230195
-2.8745 -0.22849999 -1.2365 4288230195
-2.8855 -0.2385 -0.95050001 4288230195
-3.9535 -1.0785 -0.83450001 4288230195
-4.0605001 -1.1635 -0.75650001 4288230195
-2.7825 -0.1575 -1.0365 4288230195
-3.5715001 -0.7755 -0.71350002 4288230195
-3.1155 -0.41949999 -0.71850002 4288230195
-2.8215001 -0.1865 -0.8495 4288230195
-3.1055 -0.41150001 -0.85549998 4288230195
-3.8715 -1.0115 -0.75849998 4288230195
-3.8475001 -0.98949999 -0.66750002 4288230195
-3.9684999 -1.0905 -0.91850001 4288230195
-3.0704999 -0.38350001 -0.73250002 4288230195
-3.1305001 -0.43149999 -1.1645 4288230195
-2.9635 -0.29949999 -0.81150001 4288230195
-3.0155001 -0.3405 -0.68150002 4288230195
-3.0864999 -0.39649999 -0.67750001 4288230195
-3.4995 -0.7105 -0.74449998 4288230195
-4.0165 -1.1285 -0.95450002 4288230195
-2.8134999 -0.1815 -1.3755 4288230195
-3.3975 -0.63749999 -0.93449998 4288230195
-3.0515001 -0.36849999 -0.67150003 4288230195
-3.2945001 -0.56150001 -1.1914999 4288230195
-3.0994999 -0.41249999 -0.78149998 4288230195
-3.2904999 -0.55650002 -1.0925 4288230195
-3.0025001 -0.33050001 -0.99650002 4288230195
-3.0285001 -0.35050002 -1.2975 4288230195
-2.8694999 -0.2255 -1.2615 4288230195
-2.8794999 -0.2325 -0.76050001 4288230195
-2.7685001 -0.1495 -0.78250003 4288230195
-2.8664999 -0.2225 -1.3555 4288230195
-2.7815001 -0.15549999 -0.74449998 4288230195
-2.9684999 -0.31549999 -0.78149998 4288230195
-3.8074999 -0.97549999 -0.81849998 4288230195
-2.8315001 -0.1945 -1.3695 4288230195
-3.1575 -0.45250002 -1.4135 4288230195
-3.2985001 -0.56150001 -0.72549999 4288230195
-3.0785 -0.38949999 -1.3395 4288230195
-3.2065001 -0.4905 -1.2985001 4288230195
-3.0875001 -0.39750001 -1.0245 4288230195
-2.7644999 -0.1435 -0.9285 4288230195
-3.0804999 -0.3915 -0.86650002 4288230195
-2.8805001 -0.23450001 -0.95850003 4288230195
-3.0465 -0.3635 -1.3904999 4288230195
-3.4605 -0.68949997 -0.65649998 4288230195
-2.9844999 -0.31549999 -0.81050003 4288230195
-2.8195 -0.1865 -1.1645 4288230195
-3.0215001 -0.34549999 -0.87150002 4288230195
-3.1415 -0.44049999 -1.1095001 4288230195
-2.9305 -0.27250001 -1.1345 4288230195
-3.2485001 -0.52249998 -0.72549999 4288230195
-3.1064999 -0.41150001 -0.72850001 4288230195
-2.9955001 -0.32449999 -0.79549998 4288230195
-3.9705 -1.0915 -0.89249998 4288230195
-3.1745 -0.46650001 -0.75849998 4288230195
-3.8145001 -0.9745 -0.7665 4288230195
-3.8855 -1.0245 -0.93550003 4288230195
-3.5165 -0.73949999 -0.65549999 4288230195
-2.8655 -0.22050001 -0.72350001 4288230195
-4.0425 -1.1495 -0.90750003 4288230195
-3.5775001 -0.78250003 -0.66549999 4288230195
-3.3285 -0.58749998 -0.74150002 4288230195
-3.3655 -0.61049998 -0.73250002 4288230195
-2.8645 -0.22050001 -0.88050002 4288230195
-3.7755001 -0.95050001 -0.99650002 4288230195
-3.2035 -0.48950002 -1.3475 4288230195
-3.5725 -0.7895 -0.8125 4288230195
-2.9115 -0.25749999 -1.4195 4288230195
-2.8815 -0.23550001 -0.93849999 4288230195
-2.8195 -0.18450001 -1.0865 4288230195
-3.2045 -0.48950002 -0.7105 4288230195
-4.0865002 -1.1835001 -0.84850001 4288230195
-2.8764999 -0.2315 -0.69450003 4288230195
-3.8425 -0.98949999 -0.81550002 4288230195
-2.8865001 -0.2375 -0.67150003 4288230195
-3.1275001 -0.4285 -0.90850002 4288230195
-3.8935001 -1.0315 -1.0085 4288230195
-3.8325 -0.98049998 -0.70349997 4288230195
-3.7075 -0.88550001 -0.6645 4288230195
-3.2184999 -0.49950001 -0.81550002 4288230195
-3.7485001 -0.92750001 -0.79750001 4288230195
-3.3425 -0.59750003 -0.90549999 4288230195
-2.8074999 -0.17550001 -0.84549999 4288230195
-2.9105 -0.25749999 -1.2465 4288230195
-2.9535 -0.2915 -0.69450003 4288230195
-3.1105001 -0.4145 -1.3695 4288230195
-3.1494999 -0.4465 -1.1165 4288230195
-3.3185 -0.57849997 -0.71649998 4288230195
-3.0165 -0.3425 -0.92549998 4288230195
-3.0715001 -0.38350001 -0.74849999 4288230195
-3.9445 -1.0725 -1.0185 4288230195
-3.9875 -1.1055 -0.74250001 4288230195
-2.8025 -0.1715 -0.97750002 4288230195
-2.9974999 -0.32550001 -1.1765 4288230195
-3.1815 -0.47049999 -1.1815 4288230195
-2.9414999 -0.28150001 -1.1955 4288230195
-3.4224999 -0.66149998 -0.66250002 4288230195
-3.2255001 -0.50449997 -0.77350003 4288230195
-3.1565001 -0.45050001 -0.71750003 4288230195
-3.3025 -0.56550002 -0.7015 4288230195
-2.9695001 -0.3035 -0.67449999 4288230195
-3.9584999 -1.0825 -0.77350003 4288230195
-3.3074999 -0.57050002 -0.94050002 4288230195
-3.0265 -0.34850001 -1.3175 4288230195
-3.0525 -0.36849999 -1.1745 4288230195
-2.8415 -0.2025 -0.77450001 4288230195
-3.3675001 -0.61049998 -0.68949997 4288230195
-2.8434999 -0.2035 -0.76050001 4288230195
-3.1585 -0.45250002 -0.81150001 4288230195
-3.2945001 -0.55949998 -0.99650002 4288230195
-3.2804999 -0.5485 -0.85549998 4288230195
-3.0155001 -0.3405 -1.3895 4288230195
-3.0604999 -0.37549999 -1.0685 4288230195
-3.9545 -1.0805 -0.8175 4288230195
-2.8125 -0.1795 -1.1105 4288230195
-4.0374999 -1.1465 -0.7155 4288230195
-3.7825 -0.93650001 -0.86849999 4288230195
-2.9835 -0.31549999 -1.0645 4288230195
-2.9335001 -0.26350001 -1.1025 4288230195
-3.9135001 -1.0465 -1.0185 4288230195
-3.3775001 -0.6365 -0.89649999 4288230195
-2.9575 -0.29449999 -1.3164999 4288230195
-3.8585 -1.0025001 -0.89249998 4288230195
-2.8405001 -0.2015 -0.81650001 4288230195
-2.9065001 -0.2545 -1.3785 4288230195
-3.8985 -1.0315 -0.68949997 4288230195
-2.7605 -0.14650001 -1.0755 4288230195
-3.1745 -0.4655 -0.96649998 4288230195
-3.1255 -0.42649999 -0.73650002 4288230195
-3.0065 -0.33250001 -1.2855 4288230195
-4.0485001 -1.1545 -0.87949997 4288230195
-3.3534999 -0.60949999 -1.2385 4288230195
-2.9814999 -0.31349999 -0.95350003 4288230195
-3.0655 -0.3725 -0.70749998 4288230195
-4.0945001 -1.1905 -0.88349998 4288230195
-3.6045001 -0.81550002 -0.78350002 4288230195
-2.8875 -0.2395 -1.2835 4288230195
-2.9985001 -0.3265 -0.9005 4288230195
-3.1045001 -0.41049999 -0.84250003 4288230195
-3.5085001 -0.71850002 -0.73250002 4288230195
-2.7825 -0.1565 -1.3515 4288230195
-3.2544999 -0.52749997 -0.90350002 4288230195
-2.8985 -0.2475 -0.73250002 4288230195
-3.4045 -0.64749998 -0.75150001 4288230195
-3.0025001 -0.32949999 -0.69550002 4288230195
-2.9235001 -0.26750001 -1.3735 4288230195
-2.7585001 -0.1485 -0.95249999 4288230195
-3.3564999 -0.61250001 -1.0035 4288230195
-2.9315 -0.27450001 -1.2475001 4288230195
-3.2825 -0.55150002 -0.82450002 4288230195
-3.2025001 -0.4885 -1.2745 4288230195
-2.8395 -0.2095 -1.0425 4288230195
-3.9205 -1.0525 -0.88050002 4288230195
-3.3204999 -0.58050001 -0.89649999 4288230195
-3.0905001 -0.39950001 -0.95550001 4288230195
-3.0415001 -0.36050001 -0.74650002 4288230195
-2.9375 -0.27950001 -1.3395 4288230195
-2.8805001 -0.23450001 -1.0505 4288230195
-3.0825 -0.39250001 -1.2625 4288230195
-3.2195001 -0.50150001 -0.97149998 4288230195
-3.2105 -0.49349999 -1.0515 4288230195
-2.7825 -0.14750001 -0.6505 4288230195
-3.2465 -0.52149999 -0.7665 4288230195
-2.9295001 -0.27149999 -0.97850001 4288230195
-2.8694999 -0.2255 -1.2075 4288230195
-3.3985 -0.65350002 -0.9515 4288230195
-2.8865001 -0.2385 -1.1515 4288230195
-2.8905001 -0.24150001 -0.7525 4288230195
-3.3655 -0.61650002 -0.74250001 4288230195
-3.0815001 -0.3915 -1.3815 4288230195
-2.9284999 -0.27149999 -0.90450001 4288230195
-3.4995 -0.72250003 -0.68949997 4288230195
-2.9535 -0.2915 -1.0355 4288230195
-3.8155 -0.98150003 -0.89749998 4288230195
-3.8055 -0.9745 -0.9605 4288230195
-2.8104999 -0.1785 -0.89350003 4288230195
-3.4284999 -0.67049998 -1.0085 4288230195
-2.8334999 -0.19750001 -0.86750001 4288230195
-2.9735 -0.30649999 -1.0484999 4288230195
-4.0545001 -1.1595 -0.70749998 4288230195
-2.8605001 -0.2175 -1.3685 4288230195
-3.1945 -0.4815 -1.3535 4288230195
-3.1565001 -0.45250002 -0.88050002 4288230195
-3.3924999 -0.6455 -0.78350002 4288230195
-3.3694999 -0.61650002 -0.66750002 4288230195
-3.8334999 -0.98250002 -0.89749998 4288230195
-3.4235001 -0.6645 -1.1485 4288230195
-3.8625 -1.0045 -0.82749999 4288230195
-3.2544999 -0.52749997 -0.99150002 4288230195
-3.9305 -1.0565 -0.65450001 4288230195
-4.0545001 -1.1585 -0.9465 4288230195
-3.9205 -1.0485001 -0.67250001 4288230195
-2.7915001 -0.1635 -0.90149999 4288230195
-3.3175001 -0.57749999 -0.83649999 4288230195
-3.3004999 -0.56449997 -0.68650001 4288230195
-3.0934999 -0.4005 -1.2825 4288230195
-3.4054999 -0.64450002 -1.0425 4288230195
-4.0545001 -1.1595 -0.74049997 4288230195
-2.7865 -0.1595 -0.91949999 4288230195
-3.3845 -0.64249998 -0.9375 4288230195
-3.3564999 -0.61150002 -1.0915 4288230195
-3.3705001 -0.61949998 -1.2605 4288230195
-3.4405 -0.67150003 -0.84250003 4288230195
-4.0425 -1.1495 -0.97850001 4288230195
-3.0875001 -0.39649999 -1.3575 4288230195
-3.0555 -0.37150002 -1.1015 4288230195
-3.4354999 -0.67750001 -1.0095 4288230195
-3.2135 -0.49650002 -1.2925 4288230195
-3.1594999 -0.4535 -1.1155 4288230195
-3.8855 -1.0225 -0.8035 4288230195
-2.7895 -0.16250001 -1.2115 4288230195
-3.7465 -0.91750002 -0.66549999 4288230195
-2.8655 -0.22150001 -1.0825 4288230195
-3.2235 -0.50349998 -1.2785 4288230195
-3.2325001 -0.51450002 -1.1825 4288230195
-3.7835 -0.95749998 -0.78750002 4288230195
-3.6935 -0.87550002 -0.7475 4288230195
-3.1245 -0.42550001 -0.70050001 4288230195
-3.2874999 -0.55449998 -0.73150003 4288230195
-3.2365 -0.51349998 -1.0175 4288230195
-2.9215 -0.26550001 -0.74049997 4288230195
-4.0254998 -1.1355 -0.78250003 4288230195
-2.9094999 -0.25650001 -1.2375 4288230195
-3.2865 -0.5535 -1.1565 4288230195
-3.5785 -0.79650003 -0.81349999 4288230195
-2.8155 -0.1815 -0.83649999 4288230195
-3.1854999 -0.4745 -0.9745 4288230195
-2.8885 -0.2405 -1.1805 4288230195
-3.4595001 -0.69150001 -1.1454999 4288230195
-3.3954999 -0.6275 -0.8265 4288230195
-3.7635 -0.94050002 -0.80150002 4288230195
-3.2065001 -0.4905 -0.97250003 4288230195
-3.1925001 -0.4795 -0.74049997 4288230195
-3.2005 -0.48649999 -0.79549998 4288230195
-3.2674999 -0.53750002 -0.67750001 4288230195
-3.7804999 -0.95349997 -0.98449999 4288230195
-2.9224999 -0.2665 -0.80250001 4288230195
-2.8255 -0.1965 -1.0405 4288230195
-3.9284999 -1.0565 -0.76249999 4288230195
-3.7195001 -0.90350002 -0.80849999 4288230195
-3.8645 -1.0075001 -0.95649999 4288230195
-2.8605001 -0.2185 -1.3795 4288230195
-3.0864999 -0.3955 -1.0785 4288230195
-3.1954999 -0.4815 -1.2805001 4288230195
-3.3534999 -0.60650003 -0.74349999 4288230195
-3.1995001 -0.48550001 -1.1795 4288230195
-3.4065001 -0.64950001 -0.71450001 4288230195
-2.7605 -0.14650001 -1.0045 4288230195
-3.0345001 -0.3545 -1.1365 4288230195
-3.0355 -0.35550001 -1.0735 4288230195
-3.0274999 -0.3495 -1.2385 4288230195
-4.0244999 -1.1355 -0.92949998 4288230195
-2.7615001 -0.1455 -1.0145 4288230195
-3.1115 -0.41550002 -1.3455 4288230195
-3.1835001 -0.47350001 -1.4025 4288230195
-3.3845 -0.62449998 -0.80849999 4288230195
-2.9105 -0.25650001 -1.3665 4288230195
-3.3555 -0.62050003 -1.0995001 4288230195
-2.8275001 -0.1925 -0.8125 4288230195
-3.4885001 -0.71850002 -1.1135 4288230195
-3.1884999 -0.47850001 -0.91149998 4288230195
-2.8345001 -0.19750001 -1.1535 4288230195
-3.2895 -0.55650002 -0.78149998 4288230195
-3.8815 -1.0125 -0.7755 4288230195
-3.1875 -0.48249999 -0.78250003 4288230195
-2.9475 -0.28749999 -0.70349997 4288230195
-2.9324999 -0.27250001 -0.85250002 4288230195
-3.3505001 -0.61250001 -0.69749999 4288230195
-3.3785 -0.63550001 -0.99550003 4288230195
-2.9475 -0.28650001 -1.1765 4288230195
-2.9305 -0.27250001 -0.93150002 4288230195
-3.9375 -1.0664999 -0.92949998 4288230195
-3.3225 -0.58350003 -1.1964999 4288230195
-3.4335001 -0.66049999 -0.70950001 4288230195
-3.7995 -0.96950001 -0.86049998 4288230195
-3.0325 -0.3545 -0.84149998 4288230195
-4.0685 -1.1695 -0.8585 4288230195
-2.8885 -0.2395 -1.0985 4288230195
-2.9284999 -0.27149999 -0.80650002 4288230195
-2.8975 -0.2465 -0.8175 4288230195
-2.8824999 -0.2335 -0.74550003 4288230195
-3.0485001 -0.3655 -1.0195 4288230195
-3.4695001 -0.69950002 -0.75749999 4288230195
-2.9935 -0.32249999 -1.0255001 4288230195
-3.3425 -0.59850001 -0.7615 4288230195
-4.0005002 -1.1155 -0.69550002 4288230195
-2.8245001 -0.1885 -1.0235 4288230195
-3.2485001 -0.52350003 -0.9325 4288230195
-4.0764999 -1.1755 -0.74650002 4288230195
-3.3885 -0.63349998 -1.2725 4288230195
-3.0815001 -0.3915 -1.4165 4288230195
-3.9065001 -1.0395 -0.80449998 4288230195
-3.9545 -1.0805 -0.85149997 4288230195
-2.7755001 -0.1515 -0.7755 4288230195
-2.7665 -0.1445 -1.0275 4288230195
-2.9784999 -0.3105 -1.0805 4288230195
-3.1275001 -0.42950001 -0.68849999 4288230195
-3.2114999 -0.4955 -0.88749999 4288230195
-2.9265001 -0.27149999 -0.86049998 4288230195
-2.8295 -0.1925 -1.1775 4288230195
-3.8385 -0.98549998 -0.78049999 4288230195
-3.3865001 -0.64350003 -1.0965 4288230195
-4.0945001 -1.1905 -0.79750001 4288230195
-3.0315001 -0.35350001 -1.3825001 4288230195
-2.8705001 -0.2255 -0.86650002 4288230195
-2.7715001 -0.14750001 -0.69849998 4288230195
-3.0725 -0.37850001 -0.72549999 4288230195
-3.2145 -0.4975 -1.2715 4288230195
-2.8085001 -0.17550001 -0.7845 4288230195
-3.3534999 -0.61049998 -1.0714999 4288230195
-3.0455 -0.36250001 -0.7755 4288230195
-2.9835 -0.31549999 -1.0484999 4288230195
-3.3295 -0.58850002 -1.1945 4288230195
-3.2225001 -0.5025 -1.1964999 4288230195
-3.0044999 -0.33250001 -1.4255 4288230195
-2.8325 -0.1955 -1.0865 4288230195
-3.4835 -0.72149998 -0.78250003 4288230195
-2.9675 -0.30250001 -0.9515 4288230195
-3.2835 -0.55049998 -0.75349998 4288230195
-3.1554999 -0.4515 -1.0035 4288230195
-2.8415 -0.2035 -0.93550003 4288230195
-3.9395001 -1.0655 -0.69450003 4288230195
-3.1454999 -0.4425 -0.75450003 4288230195
-2.7915001 -0.1645 -1.2585 4288230195
-2.8315001 -0.1945 -0.85650003 4288230195
-3.7644999 -0.93050003 -0.76349998 4288230195
-2.9085 -0.25650001 -1.2925 4288230195
-2.7934999 -0.1655 -0.77649999 4288230195
-4.0784998 -1.1785001 -0.69150001 4288230195
-3.0065 -0.3335 -1.0825 4288230195
-3.8705001 -1.0105 -0.77249998 4288230195
-2.8705001 -0.2255 -1.4145 4288230195
-2.8764999 -0.22950001 -0.71649998 4288230195
-3.3605001 -0.61549997 -0.95350003 4288230195
-3.3355 -0.59149998 -0.69450003 4288230195
-2.9284999 -0.2705 -0.75450003 4288230195
-2.8055 -0.1735 -0.94749999 4288230195
-3.1424999 -0.44049999 -1.3585 4288230195
-3.1605 -0.45449999 -0.84350002 4288230195
-2.9974999 -0.32550001 -0.87150002 4288230195
-2.8935001 -0.2445 -0.99550003 4288230195
-3.2995 -0.56449997 -0.84149998 4288230195
-2.9844999 -0.3105 -0.73150003 4288230195
-2.9695001 -0.3035 -1.1005 4288230195
-3.2045 -0.49950001 -1.0455 4288230195
-2.8345001 -0.19850001 -0.8915 4288230195
-3.7565 -0.92049998 -0.65549999 4288230195
-2.9465001 -0.28549999 -0.99050003 4288230195
-3.1925001 -0.4795 -0.68050003 4288230195
-3.7365 -0.90750003 -0.7335 4288230195
-3.7974999 -0.95749998 -0.74449998 4288230195
-3.3764999 -0.6275 -0.97250003 4288230195
-3.3425 -0.59850001 -0.72149998 4288230195
-3.1654999 -0.4585 -1.2865 4288230195
-2.8055 -0.1745 -1.1695 4288230195
-2.8824999 -0.23450001 -0.82249999 4288230195
-3.1164999 -0.41949999 -1.2645 4288230195
-2.8134999 -0.1805 -0.87949997 4288230195
-3.1125 -0.4165 -0.74949998 4288230195
-2.9375 -0.2775 -0.91149998 4288230195
-3.3175001 -0.57849997 -1.2155 4288230195
-3.1795001 -0.46950001 -1.2145 4288230195
-3.3845 -0.64249998 -0.88349998 4288230195
-3.0655 -0.38049999 -1.1925 4288230195
-2.9814999 -0.31349999 -0.98549998 4288230195
-3.9124999 -1.0434999 -0.77350003 4288230195
-2.7695 -0.1455 -0.79149997 4288230195
-2.8405001 -0.2025 -0.79250002 4288230195
-3.9784999 -1.0985 -0.67650002 4288230195
-3.3464999 -0.60149997 -1.0755 4288230195
-3.0715001 -0.38949999 -0.78049999 4288230195
-3.3894999 -0.62550002 -0.6925 4288230195
-2.7774999 -0.1525 -0.90350002 4288230195
-3.1905 -0.47850001 -1.3315001 4288230195
-3.3104999 -0.56349999 -0.82950002 4288230195
-3.0645001 -0.3795 -0.92150003 4288230195
-3.2925 -0.55849999 -1.1215 4288230195
-3.1905 -0.47850001 -0.88950002 4288230195
-3.9925001 -1.1105 -0.78750002 4288230195
-2.9384999 -0.27950001 -1.2845 4288230195
-3.3025 -0.56650001 -1.1665 4288230195
-2.8945 -0.2445 -1.1705 4288230195
-3.8775001 -1.0185 -1.0195 4288230195
-2.8034999 -0.1725 -1.1795 4288230195
-4.0815001 -1.1795 -0.90450001 4288230195
-3.6965001 -0.88050002 -0.8175 4288230195
-3.1155 -0.41949999 -0.8265 4288230195
-3.2765 -0.54549998 -0.68650001 4288230195
-3.2195001 -0.50150001 -1.4225 4288230195
-3.0615001 -0.37650001 -1.0815001 4288230195
-2.7885001 -0.1605 -1.0555 4288230195
-2.7674999 -0.1445 -1.3185 4288230195
-1.4464999 0.8865 0.69349998 4288230195
-2.7715001 -0.14750001 -0.99550003 4288230195
-3.3475001 -0.60250002 -0.71249998 4288230195
-3.0825 -0.39250001 -1.2424999 4288230195
-3.2375 -0.51450002 -0.86449999 4288230195
-2.8115001 -0.1795 -0.66850001 4288230195
-4.0685 -1.1715 -0.69450003 4288230195
-3.0165 -0.34150001 -0.82849997 4288230195
-2.9354999 -0.2775 -1.4105 4288230195
-2.8115001 -0.1795 -1.2505 4288230195
-2.8025 -0.1725 -1.4215 4288230195
-3.1865001 -0.47550002 -0.8075 4288230195
-2.9154999 -0.26050001 -1.0015 4288230195
-2.9744999 -0.3075 -1.3015 4288230195
-3.0235 -0.34650001 -1.1385 4288230195
-3.0225 -0.34549999 -0.68550003 4288230195
-3.4335001 -0.66350001 -1.0845 4288230195
-3.7995 -0.96950001 -0.9465 4288230195
-3.9375 -1.0655 -0.9375 4288230195
-3.0925 -0.4005 -1.2934999 4288230195
-2.8534999 -0.21250001 -1.3735 4288230195
-4.0605001 -1.1625 -0.86849999 4288230195
-3.1245 -0.42550001 -1.0345 4288230195
-2.8034999 -0.1725 -1.2735 4288230195
-2.7945001 -0.1655 -1.2965 4288230195
-3.0165 -0.34150001 -1.0825 4288230195
-3.1285 -0.42950001 -1.3925 4288230195
-3.0675001 -0.37850001 -0.65450001 4288230195
-3.0895 -0.3985 -1.3435 4288230195
-3.1605 -0.45449999 -0.9655 4288230195
-2.9094999 -0.25650001 -1.3385 4288230195
-3.9875 -1.1055 -0.84649998 4288230195
-3.3334999 -0.59149998 -0.77249998 4288230195
-2.9584999 -0.2965 -0.83249998 4288230195
-3.9315 -1.0575 -0.72649997 4288230195
-3.2075 -0.49149999 -1.3255 4288230195
-3.0304999 -0.3515 -1.0505 4288230195
-2.7644999 -0.1425 -1.1845 4288230195
-3.2555001 -0.52850002 -1.1155 4288230195
-2.8115001 -0.1795 -1.0265 4288230195
-2.9335001 -0.27450001 -0.74849999 4288230195
-2.8545001 -0.21250001 -1.2725 4288230195
-2.9375 -0.2775 -0.96850002 4288230195
-3.3534999 -0.60250002 -0.82550001 4288230195
-2.9584999 -0.29550001 -0.80550003 4288230195
-2.8375001 -0.19950001 -1.2855 4288230195
-3.0315001 -0.35249999 -0.7705 4288230195
-2.8055 -0.1735 -0.95950001 4288230195
-3.1995001 -0.48550001 -0.78649998 4288230195
-3.0044999 -0.33149999 -1.2515 4288230195
-3.2555001 -0.52850002 -1.1035 4288230195
-3.5195 -0.7385 -0.71149999 4288230195
-3.0604999 -0.37650001 -1.3895 4288230195
-2.9154999 -0.26249999 -1.0685 4288230195
-2.8835001 -0.23550001 -0.8495 4288230195
-3.2035 -0.4885 -1.1675 4288230195
-2.7804999 -0.15549999 -0.8635 4288230195
-3.4714999 -0.70450002 -0.73449999 4288230195
-2.9454999 -0.2845 -0.85949999 4288230195
-3.2735 -0.54350001 -0.91750002 4288230195
-2.9454999 -0.2845 -1.3965 4288230195
-3.2885001 -0.55550003 -1.0625 4288230195
-3.0704999 -0.38249999 -0.75849998 4288230195
-3.0325 -0.35350001 -0.69950002 4288230195
-3.0374999 -0.35750002 -1.3685 4288230195
-3.3555 -0.60549998 -0.69950002 4288230195
-2.9475 -0.28749999 -1.2965 4288230195
-3.2375 -0.51550001 -1.0385 4288230195
-3.1715 -0.46450001 -0.87050003 4288230195
-3.0235 -0.34549999 -1.4105 4288230195
-2.8985 -0.2485 -0.8775 4288230195
-4.0904999 -1.1875 -0.77649999 4288230195
-2.7985001 -0.16850001 -0.84549999 4288230195
-3.2825 -0.54949999 -1.0795 4288230195
-2.8894999 -0.24150001 -1.3745 4288230195
-3.2665 -0.53649998 -0.77649999 4288230195
-3.1025 -0.4095 -1.0745 4288230195
-2.9305 -0.27250001 -0.7385 4288230195
-2.9695001 -0.30450001 -0.83450001 4288230195
-3.4165001 -0.65649998 -0.7105 4288230195
-2.9514999 -0.2895 -1.0625 4288230195
-4.0075002 -1.1215 -0.9235 4288230195
-3.3865001 -0.62449998 -0.82950002 4288230195
-3.8315001 -0.98150003 -0.97250003 4288230195
-3.0425 -0.36250001 -1.1415 4288230195
-2.9744999 -0.3075 -0.81950003 4288230195
-2.8965001 -0.2455 -1.0465 4288230195
-3.4124999 -0.64749998 -0.67049998 4288230195
-3.2145 -0.4975 -1.1174999 4288230195
-2.8945 -0.2445 -0.93650001 4288230195
-3.2465 -0.52249998 -0.91350001 4288230195
-3.5434999 -0.75849998 -0.76749998 4288230195
-3.6465001 -0.83649999 -0.65149999 4288230195
-2.8234999 -0.1895 -0.89350003 4288230195
-3.8645 -1.0065 -0.79049999 4288230195
-3.4175 -0.66149998 -0.98150003 4288230195
-3.4254999 -0.67150003 -0.9795 4288230195
-3.2265 -0.51550001 -0.7895 4288230195
-2.8015001 -0.1725 -1.3195 4288230195
-3.8034999 -0.95749998 -0.85049999 4288230195
-2.9735 -0.3075 -0.87949997 4288230195
-3.2885001 -0.55449998 -1.2545 4288230195
-2.8635001 -0.22050001 -0.71350002 4288230195
-3.0785 -0.38949999 -1.0125 4288230195
-3.4224999 -0.66250002 -0.70850003 4288230195
-3.0915 -0.4005 -0.9095 4288230195
-3.9855001 -1.1035 -1.0005 4288230195
-3.1075001 -0.41249999 -0.89649999 4288230195
-2.9245 -0.26750001 -0.99150002 4288230195
-2.9284999 -0.2705 -0.96950001 4288230195
-2.8975 -0.2465 -1.2315 4288230195
-2.9065001 -0.2545 -1.0785 4288230195
-2.7785001 -0.1525 -1.0085 4288230195
-3.9045 -1.0375 -0.70050001 4288230195
-3.0864999 -0.39649999 -1.0005 4288230195
-3.1854999 -0.47550002 -0.81849998 4288230195
-2.9184999 -0.26249999 -0.7665 4288230195
-3.3605001 -0.62349999 -0.8955 4288230195
-3.0445001 -0.36250001 -1.0755 4288230195
-3.2025001 -0.48750001 -1.2225 4288230195
-3.8525 -0.99849999 -0.86750001 4288230195
-3.2915001 -0.55849999 -1.2785 4288230195
-2.8405001 -0.2025 -0.86150002 4288230195
-4.0085001 -1.1215 -0.93849999 4288230195
-3.3175001 -0.57950002 -1.2785 4288230195
-3.1305001 -0.4305 -1.2395 4288230195
-2.9765 -0.30849999 -0.96750003 4288230195
-3.2045 -0.4885 -0.88249999 4288230195
-2.9365001 -0.2775 -1.0225 4288230195
-3.2095001 -0.49250001 -1.2325 4288230195
-3.0085001 -0.33450001 -1.2185 4288230195
-3.9844999 -1.1035 -0.9325 4288230195
-2.7915001 -0.16250001 -0.7105 4288230195
-3.2655001 -0.53649998 -0.6645 4288230195
-3.1155 -0.41949999 -1.3265001 4288230195
-3.2974999 -0.5625 -1.0645 4288230195
-3.5344999 -0.74949998 -0.66049999 4288230195
-3.8134999 -0.97250003 -0.7385 4288230195
-2.9265001 -0.26950002 -1.0664999 4288230195
-2.8915 -0.24250001 -1.3555 4288230195
-2.8615 -0.21950001 -0.95050001 4288230195
-2.7925 -0.1645 -1.4065 4288230195
-3.3145001 -0.5765 -0.7475 4288230195
-2.7785001 -0.1525 -0.6735 4288230195
-3.2105 -0.49349999 -1.2495 4288230195
-3.2375 -0.51450002 -1.1925 4288230195
-2.8164999 -0.1815 -0.74949998 4288230195
-2.7815001 -0.1565 -0.96450001 4288230195
-3.2365 -0.51249999 -0.6785 4288230195
-2.9825001 -0.3145 -1.3705 4288230195
-2.7774999 -0.1515 -0.7985 4288230195
-3.6005001 -0.80650002 -0.77149999 4288230195
-3.4445 -0.68849999 -0.80049998 4288230195
-3.9275 -1.0575 -0.9465 4288230195
-2.9045 -0.25350001 -0.80150002 4288230195
-3.1565001 -0.4515 -1.1475 4288230195
-3.3885 -0.64249998 -0.8075 4288230195
-2.7904999 -0.16250001 -0.97049999 4288230195
-3.5555 -0.75349998 -0.80949998 4288230195
-3.9005001 -1.0345 -0.78250003 4288230195
-3.4575 -0.6965 -1.0655 4288230195
-2.8395 -0.2005 -0.82849997 4288230195
-2.8225 -0.1885 -0.92150003 4288230195
-2.8564999 -0.2155 -0.65450001 4288230195
-3.1485 -0.4445 -0.9515 4288230195
-2.8515 -0.2115 -0.6825 4288230195
-3.3905001 -0.63349998 -1.0815001 4288230195
-3.1245 -0.42950001 -0.78350002 4288230195
-2.9775 -0.3055 -0.73150003 4288230195
-3.2844999 -0.55250001 -0.7615 4288230195
-3.7795 -0.93349999 -0.99849999 4288230195
-3.0825 -0.3935 -1.2345001 4288230195
-2.8015001 -0.1715 -1.0325 4288230195
-2.9955001 -0.32449999 -1.3595001 4288230195
-2.7885001 -0.1605 -0.76950002 4288230195
-2.9795001 -0.3125 -0.66949999 4288230195
-3.1865001 -0.4745 -0.74949998 4288230195
-3.1815 -0.47150001 -0.89749998 4288230195
-3.3215001 -0.58249998 -0.93849999 4288230195
-3.1635001 -0.45649999 -0.68550003 4288230195
-3.2585001 -0.53149998 -0.89749998 4288230195
-2.9895 -0.32050002 -1.1715 4288230195
-2.9784999 -0.30950001 -0.7155 4288230195
-3.2555001 -0.52950001 -0.72049999 4288230195
-3.0504999 -0.36849999 -0.82849997 4288230195
-3.0745001 -0.3865 -0.93550003 4288230195
-3.7275 -0.91049999 -0.78649998 4288230195
-2.8425 -0.2035 -1.3735 4288230195
-3.7084999 -0.88450003 -0.65649998 4288230195
-2.8894999 -0.24150001 -0.92949998 4288230195
-2.8164999 -0.1815 -0.78750002 4288230195
-4.0955 -1.1905 -0.87050003 4288230195
-3.2045 -0.4885 -1.1585 4288230195
-2.8145001 -0.1815 -1.2415 4288230195
-2.8515 -0.2115 -1.3125 4288230195
-3.0485001 -0.3655 -0.98250002 4288230195
-2.9814999 -0.31349999 -0.90549999 4288230195
-3.9435 -1.0714999 -0.72649997 4288230195
-2.8325 -0.1955 -1.1265 4288230195
-2.7985001 -0.16950001 -1.1585 4288230195
-2.8325 -0.1945 -0.77350003 4288230195
-3.2514999 -0.5255 -0.80650002 4288230195
-3.5144999 -0.7335 -0.68150002 4288230195
-3.2674999 -0.53850001 -1.2115 4288230195
-3.0155001 -0.33950001 -1.0065 4288230195
-2.9525001 -0.29050002 -0.95649999 4288230195
-2.7895 -0.16150001 -0.8175 4288230195
-3.2205 -0.50150001 -1.3375 4288230195
-3.1565001 -0.45050001 -1.2495 4288230195
-3.0625 -0.3775 -1.3415 4288230195
-4.0275002 -1.1375 -0.9425 4288230195
-3.1435001 -0.44049999 -0.74250001 4288230195
-3.8985 -1.0315 -0.65549999 4288230195
-2.9275 -0.2705 -1.3845 4288230195
-4.0035 -1.1185 -0.97750002 4288230195
-3.6505001 -0.85149997 -0.81150001 4288230195
-2.8635001 -0.22050001 -1.2995 4288230195
-2.9805 -0.3125 -1.2445 4288230195
-3.6345 -0.83249998 -0.65549999 4288230195
-3.0734999 -0.3865 -1.0575 4288230195
-2.9305 -0.27250001 -1.1765 4288230195
-3.4195001 -0.66750002 -0.80449998 4288230195
-3.0975001 -0.40450001 -1.1945 4288230195
-3.3034999 -0.5675 -0.85149997 4288230195
-3.0574999 -0.37349999 -1.2295001 4288230195
-3.7425001 -0.92250001 -0.80150002 4288230195
-3.2375 -0.51349998 -0.83050001 4288230195
-3.3425 -0.59750003 -0.95050001 4288230195
-3.0044999 -0.33149999 -0.96649998 4288230195
-3.0265 -0.3495 -0.9285 4288230195
-3.8985 -1.0315 -0.71950001 4288230195
-3.3794999 -0.63050002 -0.83649999 4288230195
-3.0074999 -0.3335 -1.4025 4288230195
-2.8345001 -0.19850001 -0.87550002 4288230195
-2.8345001 -0.19850001 -1.4035 4288230195
-4.0265002 -1.1365 -0.87550002 4288230195
-3.8525 -0.9975 -0.87550002 4288230195
-3.4045 -0.64649999 -0.83649999 4288230195
-2.9265001 -0.26950002 -0.76249999 4288230195
-3.3564999 -0.61049998 -0.7105 4288230195
-2.8594999 -0.2165 -0.73750001 4288230195
-3.8434999 -0.99150002 -1.0204999 4288230195
-2.8715 -0.2255 -1.0625 4288230195
-2.9755001 -0.30849999 -1.0085 4288230195
-2.8455 -0.20550001 -1.0255001 4288230195
-3.2314999 -0.51349998 -0.9605 4288230195
-3.9965 -1.1135 -0.67250001 4288230195
-3.2195001 -0.50150001 -0.9515 4288230195
-3.9495001 -1.0755 -0.77649999 4288230195
-2.8715 -0.22750001 -0.91149998 4288230195
-3.5344999 -0.76050001 -0.8075 4288230195
-3.1285 -0.4285 -1.1375 4288230195
-3.8255 -0.97549999 -0.73049998 4288230195
-2.8545001 -0.21250001 -0.93049997 4288230195
-2.8004999 -0.17050001 -0.66049999 4288230195
-3.8924999 -1.0285 -0.77450001 4288230195
-3.2135 -0.4955 -1.0735 4288230195
-3.1554999 -0.4515 -0.89850003 4288230195
-3.5014999 -0.7295 -1.0855 4288230195
-3.0265 -0.34850001 -1.3674999 4288230195
-2.8664999 -0.2225 -1.1505001 4288230195
-3.4974999 -0.7245 -0.65649998 4288230195
-3.8215001 -0.98049998 -0.70649999 4288230195
-3.3805001 -0.62849998 -0.65750003 4288230195
-2.8505001 -0.2095 -1.0575 4288230195
-3.2965 -0.5625 -1.0445 4288230195
-3.5455 -0.76749998 -0.80449998 4288230195
-2.7895 -0.16250001 -1.1465 4288230195
-3.0105 -0.33649999 -0.75150001 4288230195
-3.0255001 -0.34850001 -1.0825 4288230195
-3.9554999 -1.0825 -0.65249997 4288230195
-3.1064999 -0.41249999 -1.2475001 4288230195
-3.9254999 -1.0575 -0.96450001 4288230195
-2.8924999 -0.24350001 -1.1975 4288230195
-3.5815001 -0.79250002 -0.65450001 4288230195
-3.1485 -0.44549999 -1.3545001 4288230195
-2.9425001 -0.2825 -0.9325 4288230195
-2.9595001 -0.2965 -1.3835 4288230195
-2.8175001 -0.18350001 -1.0595 4288230195
-3.0885 -0.39649999 -0.75749999 4288230195
-2.7704999 -0.14750001 -1.3945 4288230195
-3.5685 -0.77649999 -0.7335 4288230195
-2.7595 -0.1485 -0.83450001 4288230195
-1.5055 0.85750002 0.75550002 4288230195
-3.1094999 -0.4145 -1.1215 4288230195
-3.7615001 -0.94050002 -1.0225 4288230195
-2.8464999 -0.20649999 -0.90350002 4288230195
-2.9224999 -0.2665 -0.8215 4288230195
-2.8675001 -0.2235 -0.83350003 4288230195
-3.0825 -0.39250001 -0.98250002 4288230195
-1.5035 0.85549998 0.7245 4288230195
-3.3434999 -0.5995 -0.92049998 4288230195
-3.2625 -0.5345 -1.0065 4288230195
-3.4224999 -0.65249997 -1.1205 4288230195
-3.3015001 -0.56550002 -0.7525 4288230195
-3.4584999 -0.68349999 -1.0695 4288230195
-3.0215001 -0.34549999 -1.2934999 4288230195
-3.3475001 -0.60149997 -0.99949998 4288230195
-3.1355 -0.4355 -1.1555001 4288230195
-3.9814999 -1.1005 -0.6645 4288230195
-3.8245001 -0.97850001 -0.89450002 4288230195
-3.1145 -0.41850001 -0.88550001 4288230195
-3.3735001 -0.63050002 -1.1255 4288230195
-3.1445 -0.44350001 -0.87349999 4288230195
-3.2974999 -0.5625 -1.2505 4288230195
-3.4245 -0.65850002 -1.0685 4288230195
-2.8585 -0.2165 -1.2625 4288230195
-2.8525 -0.2105 -1.4195 4288230195
-3.0485001 -0.36649999 -0.69349998 4288230195
-3.9705 -1.0925 -0.85149997 4288230195
-2.9725001 -0.30649999 -1.3885 4288230195
-2.8645 -0.2335 -1.0445 4288230195
-3.0845001 -0.39449999 -0.66949999 4288230195
-3.4454999 -0.67150003 -0.74949998 4288230195
-2.9775 -0.3105 -1.3115 4288230195
-3.0335 -0.3545 -0.68650001 4288230195
-2.7735 -0.1495 -1.3635 4288230195
-3.0625 -0.37650001 -0.94450003 4288230195
-3.2585001 -0.53250003 -1.2335 4288230195
-4.0495 -1.1535 -0.75150001 4288230195
-3.1255 -0.42649999 -0.66850001 4288230195
-2.9465001 -0.28549999 -1.3835 4288230195
-3.6705 -0.86650002 -0.8075 4288230195
-2.7915001 -0.1635 -1.0315 4288230195
-3.0474999 -0.3655 -1.4035 4288230195
-3.3145001 -0.57550001 -0.69849998 4288230195
-2.7715001 -0.14650001 -1.0755 4288230195
-3.1135001 -0.41850001 -0.65750003 4288230195
-3.4035001 -0.64649999 -0.68449998 4288230195
-2.9435 -0.28350002 -0.95350003 4288230195
-3.1815 -0.47150001 -0.73750001 4288230195
-3.7804999 -0.93150002 -0.85750002 4288230195
-2.9595001 -0.2965 -1.3565 4288230195
-3.3104999 -0.57249999 -0.67750001 4288230195
-2.8794999 -0.2335 -1.0225 4288230195
-4.0155001 -1.1275001 -0.91049999 4288230195
-3.0634999 -0.3725 -0.83749998 4288230195
-2.7874999 -0.1595 -1.0965 4288230195
-2.9484999 -0.28749999 -1.2625 4288230195
-3.1485 -0.44549999 -0.90250003 4288230195
-2.9124999 -0.25850001 -0.69749999 4288230195
-2.7904999 -0.1635 -1.3465 4288230195
-3.5834999 -0.78850001 -0.76349998 4288230195
-2.8364999 -0.19950001 -0.66350001 4288230195
-3.0385001 -0.3585 -0.8125 4288230195
-3.1624999 -0.45649999 -0.66850001 4288230195
-3.1675 -0.45950001 -1.3935 4288230195
-3.4124999 -0.64350003 -1.1015 4288230195
-3.7644999 -0.93050003 -0.75450003 4288230195
-2.8924999 -0.24250001 -0.72350001 4288230195
-2.8555 -0.2145 -0.97049999 4288230195
-3.8315001 -0.97850001 -0.69550002 4288230195
-2.8255 -0.19050001 -1.1435 4288230195
-3.4045 -0.65350002 -0.90250003 4288230195
-3.3375001 -0.59450001 -1.0655 4288230195
-3.8745 -1.0154999 -0.82849997 4288230195
-3.4045 -0.6505 -1.0225 4288230195
-3.0964999 -0.40450001 -1.4075 4288230195
-3.3585 -0.61150002 -0.76349998 4288230195
-2.8175001 -0.1855 -0.86549997 4288230195
-3.2095001 -0.49349999 -0.90549999 4288230195
-2.9295001 -0.27250001 -1.3595001 4288230195
-3.2005 -0.48649999 -0.92549998 4288230195
-3.0415001 -0.36050001 -0.73750001 4288230195
-3.3515 -0.6085 -0.84549999 4288230195
-3.0144999 -0.33950001 -1.3135 4288230195
-3.1025 -0.4095 -0.93449998 4288230195
-3.3445001 -0.60049999 -1.2115 4288230195
-4.0925002 -1.1885 -0.98250002 4288230195
-3.8315001 -0.9795 -0.82249999 4288230195
-4.0795002 -1.1795 -1.0195 4288230195
-2.8345001 -0.1965 -0.7295 4288230195
-3.3034999 -0.5675 -0.98949999 4288230195
-3.4054999 -0.64450002 -1.0545 4288230195
-2.9275 -0.27450001 -0.77850002 4288230195
-2.9595001 -0.2965 -0.70950001 4288230195
-3.4535 -0.68650001 -1.1315 4288230195
-4.0145001 -1.1265 -0.65149999 4288230195
-3.3185 -0.57849997 -1.1705 4288230195
-3.2955 -0.56050003 -1.0115 4288230195
-2.9305 -0.2735 -1.1485 4288230195
-3.4324999 -0.66949999 -0.72649997 4288230195
-3.7985001 -0.95749998 -0.71149999 4288230195
-3.7625 -0.91750002 -1.0095 4288230195
-3.2785001 -0.5485 -1.0315 4288230195
-3.0985 -0.40549999 -0.8125 4288230195
-2.9425001 -0.2825 -1.1635 4288230195
-4.0205002 -1.1325001 -0.93849999 4288230195
-3.3924999 -0.64850003 -0.96450001 4288230195
-2.8815 -0.23550001 -1.2654999 4288230195
-2.9885001 -0.3195 -1.0965 4288230195
-3.2955 -0.5625 -0.8265 4288230195
-3.0864999 -0.3955 -1.0944999 4288230195
-3.2955 -0.56050003 -1.0215 4288230195
-3.2544999 -0.52850002 -0.8215 4288230195
-3.8815 -1.0175 -0.70450002 4288230195
-3.3924999 -0.64950001 -0.79350001 4288230195
-3.1255 -0.42750001 -0.87550002 4288230195
-3.1895001 -0.4765 -1.2905 4288230195
-2.8764999 -0.2305 -0.70649999 4288230195
-3.1375 -0.43650001 -0.86849999 4288230195
-3.2105 -0.49349999 -0.8585 4288230195
-3.8785 -1.0195 -1.0065 4288230195
-3.0585001 -0.37450001 -1.2525001 4288230195
-4.0675001 -1.1684999 -0.81150001 4288230195
-3.3685 -0.6275 -0.95749998 4288230195
-3.0775001 -0.38850001 -0.99849999 4288230195
-3.8415 -0.98650002 -0.74849999 4288230195
-2.9665 -0.3055 -1.0385 4288230195
-2.7925 -0.1645 -1.2835 4288230195
-3.3425 -0.59850001 -1.1475 4288230195
-2.8275001 -0.19150001 -1.3015 4288230195
-3.0625 -0.3775 -1.2745 4288230195
-3.0565 -0.3725 -1.0605 4288230195
-2.9135001 -0.26050001 -0.89749998 4288230195
-3.3025 -0.5675 -0.96149999 4288230195
-3.2585001 -0.53149998 -0.7295 4288230195
-3.3475001 -0.6045 -1.2035 4288230195
-3.2054999 -0.48950002 -0.99150002 4288230195
-3.0925 -0.4005 -1.3645 4288230195
-3.9985001 -1.1145 -0.76550001 4288230195
-3.0365 -0.35750002 -1.2835 4288230195
-3.1405001 -0.43850002 -1.2815 4288230195
-2.8775001 -0.2315 -1.0645 4288230195
-3.2744999 -0.54449999 -1.1335 4288230195
-3.8635001 -1.0045 -0.74849999 4288230195
-2.8865001 -0.2375 -0.83149999 4288230195
-2.8975 -0.2465 -1.2465 4288230195
-3.3575001 -0.62150002 -0.7895 4288230195
-3.2155001 -0.49849999 -1.3635 4288230195
-2.7835 -0.1565 -1.1745 4288230195
-2.8225 -0.1875 -0.93550003 4288230195
-4.0815001 -1.1805 -0.94950002 4288230195
-3.8675001 -1.0095 -0.83749998 4288230195
-1.4775 0.86949998 0.6925 4288230195
-2.9005001 -0.24950001 -0.7245 4288230195
-2.8694999 -0.22750001 -1.0385 4288230195
-2.8405001 -0.2015 -1.1275001 4288230195
-2.7425001 -0.1195 -0.61549997 4288230195
-3.3694999 -0.62050003 -0.83050001 4288230195
-3.7295001 -0.91350001 -0.80650002 4288230195
-2.8085001 -0.17749999 -1.1355 4288230195
-3.0715001 -0.38550001 -0.84649998 4288230195
-3.2255001 -0.50550002 -1.0825 4288230195
-3.3775001 -0.62949997 -0.9425 4288230195
-3.2165 -0.49849999 -0.8355 4288230195
-3.4525001 -0.68449998 -0.7015 4288230195
-3.3325 -0.59149998 -1.0154999 4288230195
-3.7985001 -0.96850002 -0.92250001 4288230195
-3.7225001 -0.89649999 -0.70450002 4288230195
-3.2295001 -0.5165 -1.2065001 4288230195
-4.0095 -1.1224999 -0.97149998 4288230195
-2.8445001 -0.2045 -1.0845 4288230195
-2.7644999 -0.1425 -1.3575 4288230195
-4.0465002 -1.1525 -0.76550001 4288230195
-4.0595002 -1.1625 -0.93349999 4288230195
-4.0025001 -1.1174999 -0.9095 4288230195
-3.2674999 -0.5395 -1.1845 4288230195
-2.8034999 -0.1725 -0.70450002 4288230195
-2.7765 -0.1595 -0.78250003 4288230195
-4.0275002 -1.1375 -0.80049998 4288230195
-2.8375001 -0.19950001 -1.1195 4288230195
-4.0685 -1.1695 -0.82749999 4288230195
-3.2774999 -0.54650003 -1.2325 4288230195
-3.3334999 -0.59149998 -0.81650001 4288230195
-2.8935001 -0.24350001 -1.3895 4288230195
-2.8835001 -0.23649999 -1.0605 4288230195
-3.7685001 -0.94450003 -0.95249999 4288230195
-3.2135 -0.49650002 -1.1575 4288230195
-2.9584999 -0.2965 -0.92949998 4288230195
-2.7674999 -0.1435 -1.0905 4288230195
-3.1984999 -0.48449999 -0.96149999 4288230195
-3.3505001 -0.61650002 -0.77950001 4288230195
-2.8455 -0.2145 -1.0405 4288230195
-2.9895 -0.3195 -1.2465 4288230195
-2.7644999 -0.1425 -1.2415 4288230195
-2.9805 -0.3125 -1.0905 4288230195
-3.5495 -0.75749999 -1.1275001 4288230195
-2.8015001 -0.1715 -0.79750001 4288230195
-2.7744999 -0.1495 -0.86650002 4288230195
-3.1335001 -0.4325 -0.84350002 4288230195
-2.9514999 -0.29050002 -0.86750001 4288230195
-2.8625 -0.21950001 -1.0465 4288230195
-4.0054998 -1.1205 -0.66949999 4288230195
-3.0404999 -0.35949999 -1.2055 4288230195
-3.1264999 -0.4285 -1.0225 4288230195
-3.2465 -0.52149999 -0.96249998 4288230195
-3.3455 -0.60149997 -0.70249999 4288230195
-3.9175 -1.0485001 -0.84549999 4288230195
-3.8924999 -1.0285 -0.80949998 4288230195
-4.0254998 -1.1365 -0.69150001 4288230195
-3.1824999 -0.4725 -1.3645 4288230195
-3.4235001 -0.65649998 -1.0995001 4288230195
-3.0675001 -0.38150001 -0.78350002 4288230195
-2.8645 -0.22050001 -1.1245 4288230195
-2.9775 -0.3105 -1.3275 4288230195
-2.9275 -0.27149999 -1.2235 4288230195
-3.2544999 -0.52749997 -1.0855 4288230195
-2.8635001 -0.22150001 -0.9605 4288230195
-2.9725001 -0.30649999 -1.3335 4288230195
-3.1654999 -0.4585 -1.3444999 4288230195
-3.3905001 -0.63950002 -1.2015001 4288230195
-2.9775 -0.3105 -0.91250002 4288230195
-4.0044999 -1.1185 -0.8215 4288230195
-3.1175001 -0.42050001 -1.2385 4288230195
-3.1294999 -0.4305 -0.9375 4288230195
-3.2084999 -0.49250001 -0.80550003 4288230195
-3.2045 -0.48950002 -0.91049999 4288230195
-3.1135001 -0.41850001 -0.93049997 4288230195
-2.9165001 -0.26249999 -1.2005 4288230195
-3.9985001 -1.1145 -0.87650001 4288230195
-3.1845 -0.47350001 -1.1395 4288230195
-3.3994999 -0.6365 -0.70249999 4288230195
-3.1405001 -0.4395 -1.3985 4288230195
-3.0625 -0.37650001 -0.76950002 4288230195
-2.9075 -0.2545 -1.0555 4288230195
-2.9365001 -0.27849999 -0.94050002 4288230195
-3.5244999 -0.7335 -1.1495 4288230195
-3.4005001 -0.63349998 -0.66250002 4288230195
-2.7965 -0.1675 -0.87849998 4288230195
-3.4095001 -0.64850003 -0.86549997 4288230195
-4.0205002 -1.1325001 -0.75950003 4288230195
-4.0815001 -1.1805 -0.66250002 4288230195
-3.1105001 -0.41550002 -0.68050003 4288230195
-3.3924999 -0.63550001 -1.0445 4288230195
-3.9914999 -1.1095001 -0.82749999 4288230195
-3.9755001 -1.0965 -0.97350001 4288230195
-3.1745 -0.46450001 -0.77149999 4288230195
-2.8104999 -0.17749999 -1.0465 4288230195
-3.0855 -0.4075 -0.78250003 4288230195
-2.9175 -0.26350001 -1.2225 4288230195
-2.9165001 -0.26249999 -0.70950001 4288230195
-3.0964999 -0.40450001 -0.87949997 4288230195
-2.8175001 -0.18350001 -0.9885 4288230195
-2.8615 -0.2175 -1.0315 4288230195
-3.6854999 -0.86949998 -0.75550002 4288230195
-3.2054999 -0.48950002 -0.95050001 4288230195
-3.5515001 -0.76349998 -0.71649998 4288230195
-3.6445 -0.8355 -0.73750001 4288230195
-3.1505001 -0.4465 -0.79350001 4288230195
-3.8255 -0.97750002 -0.90350002 4288230195
-3.6224999 -0.83050001 -0.79549998 4288230195
-4.0005002 -1.1155 -0.93849999 4288230195
-2.9235001 -0.26750001 -0.88849998 4288230195
-2.8545001 -0.2145 -0.77749997 4288230195
-3.2105 -0.49349999 -1.3985 4288230195
-3.0065 -0.33250001 -1.0215 4288230195
-3.3485 -0.60350001 -1.1085 4288230195
-3.4384999 -0.66750002 -0.66149998 4288230195
-2.7755001 -0.1495 -0.70950001 4288230195
-3.2084999 -0.49250001 -1.2825 4288230195
-2.9965 -0.32550001 -0.92750001 4288230195
-3.0455 -0.3635 -0.80949998 4288230195
-3.3715 -0.61250001 -0.84450001 4288230195
-3.2695 -0.54049999 -0.84450001 4288230195
-3.2265 -0.51450002 -1.0434999 4288230195
-3.8685 -1.0075001 -0.66650003 4288230195
-2.9695001 -0.3035 -1.0185 4288230195
-3.5235 -0.74449998 -0.80650002 4288230195
-3.3015001 -0.56550002 -1.1585 4288230195
-2.9005001 -0.24950001 -0.8545 4288230195
-3.0704999 -0.38350001 -1.2045 4288230195
-3.8475001 -0.99049997 -0.65649998 4288230195
-4.0335002 -1.1425 -0.70550001 4288230195
-2.9944999 -0.31150001 -0.64850003 4288230195
-3.3385 -0.59549999 -0.66250002 4288230195
-3.2105 -0.49349999 -1.3135 4288230195
-2.7855 -0.1595 -0.71850002 4288230195
-2.9175 -0.26249999 -1.1655 4288230195
-2.8074999 -0.17650001 -0.66049999 4288230195
-3.9765 -1.0965 -0.8405 4288230195
-2.9184999 -0.26449999 -1.3885 4288230195
-3.2844999 -0.5485 -0.87550002 4288230195
-3.2065001 -0.49149999 -1.0145 4288230195
-2.9305 -0.2735 -1.3455 4288230195
-2.8234999 -0.1885 -0.67250001 4288230195
-3.8564999 -0.99949998 -0.74250001 4288230195
-2.8545001 -0.21350001 -0.95350003 4288230195
-3.1385 -0.43650001 -0.88950002 4288230195
-3.2835 -0.55150002 -1.1005 4288230195
-3.5885 -0.79150003 -0.67650002 4288230195
-2.9454999 -0.28549999 -1.0585001 4288230195
-3.5055001 -0.73250002 -1.1454999 4288230195
-3.3625 -0.6135 -0.82450002 4288230195
-3.1784999 -0.46849999 -1.0255001 4288230195
-2.8065 -0.17550001 -1.1875 4288230195
-3.8485 -0.99349999 -0.79250002 4288230195
-4.0454998 -1.1515 -0.77850002 4288230195
-3.3945 -0.6415 -1.1355 4288230195
-3.1294999 -0.42950001 -0.92549998 4288230195
-3.7704999 -0.93650001 -0.71249998 4288230195
-3.0465 -0.36449999 -0.79250002 4288230195
-2.9584999 -0.29449999 -1.1515 4288230195
-3.0595 -0.37549999 -1.1785001 4288230195
-2.9955001 -0.32449999 -0.98549998 4288230195
-2.8505001 -0.2105 -0.99250001 4288230195
-3.0125 -0.33750001 -0.8355 4288230195
-3.0625 -0.3775 -1.3055 4288230195
-3.1145 -0.41850001 -0.99250001 4288230195
-2.9315 -0.2735 -0.67949998 4288230195
-3.2895 -0.55550003 -1.1355 4288230195
-3.1684999 -0.4605 -0.8405 4288230195
-2.8664999 -0.2235 -1.3775001 4288230195
-2.9844999 -0.31650001 -1.4105 4288230195
-2.9995 -0.3265 -1.1345 4288230195
-3.0504999 -0.36050001 -0.71649998 4288230195
-2.9505 -0.28850001 -1.1445 4288230195
-2.8275001 -0.19150001 -0.98449999 4288230195
-2.9655001 -0.29949999 -0.84450001 4288230195
-3.1015 -0.40850002 -1.2215 4288230195
-3.0655 -0.3795 -1.1035 4288230195
-3.8594999 -1.0025001 -0.7755 4288230195
-3.2615001 -0.53350002 -0.83850002 4288230195
-2.9935 -0.32350001 -1.2695 4288230195
-3.1585 -0.4535 -0.69950002 4288230195
-2.8735001 -0.22750001 -0.9235 4288230195
-3.2065001 -0.4905 -1.0675 4288230195
-4.0914998 -1.1885 -0.75450003 4288230195
-3.8605001 -1.0035 -0.84450001 4288230195
-3.7514999 -0.91949999 -0.69349998 4288230195
-4.0914998 -1.1865 -0.68550003 4288230195
-3.2565 -0.53049999 -0.86150002 4288230195
-3.4005001 -0.65649998 -1.0365 4288230195
-2.9035001 -0.25150001 -1.0105 4288230195
-3.3845 -0.63249999 -1.1365 4288230195
-2.8865001 -0.2375 -1.3875 4288230195
-3.8345001 -0.98250002 -0.8125 4288230195
-3.8164999 -0.98150003 -1.0055 4288230195
-3.2405 -0.5165 -0.73750001 4288230195
-3.8445001 -0.9885 -0.67650002 4288230195
-3.1845 -0.47350001 -1.0795 4288230195
-3.3794999 -0.63050002 -1.1964999 4288230195
-2.8175001 -0.18450001 -1.2715 4288230195
-3.2065001 -0.4905 -0.89350003 4288230195
-3.7965 -0.95349997 -0.8215 4288230195
-3.1775 -0.4675 -1.1905 4288230195
-3.2235 -0.50349998 -1.1435 4288230195
-3.3215001 -0.58149999 -1.1005 4288230195
-2.8175001 -0.18450001 -1.2325 4288230195
-3.1715 -0.46149999 -1.1155 4288230195
-3.0025001 -0.33050001 -1.1445 4288230195
-3.5885 -0.78850001 -0.65549999 4288230195
-3.0215001 -0.34549999 -0.66750002 4288230195
-3.9755001 -1.0965 -0.76450002 4288230195
-2.9024999 -0.25049999 -0.91649997 4288230195
-3.0905001 -0.39950001 -1.2495 4288230195
-3.3664999 -0.60750002 -0.71649998 4288230195
-3.1224999 -0.42449999 -0.72850001 4288230195
-3.3015001 -0.56449997 -0.92650002 4288230195
-3.1775 -0.46849999 -1.0045 4288230195
-2.9015 -0.24950001 -0.7665 4288230195
-3.1194999 -0.4235 -0.86549997 4288230195
-2.9254999 -0.26950002 -1.2645 4288230195
-3.8545001 -0.99949998 -0.97149998 4288230195
-3.9165001 -1.0475 -0.78350002 4288230195
-3.8555 -0.99949998 -0.76550001 4288230195
-3.0695 -0.38249999 -1.3475 4288230195
-2.9765 -0.30950001 -1.0975 4288230195
-2.8125 -0.1785 -0.71649998 4288230195
-3.1535001 -0.44850001 -1.2595 4288230195
