# .PCD v0.7 - Point Cloud Data file format
VERSION 0.7
FIELDS x y z rgb
SIZE 4 4 4 4
TYPE F F F U
COUNT 1 1 1 1
WIDTH 1112
HEIGHT 1
VIEWPOINT 0 0 0 1 0 0 0
POINTS 1112
DATA ascii
-4.5704999 -1.3135 -0.62650001 4294953984
-4.5605001 -1.3175 -0.6275 4294953984
-4.5844998 -1.2965 -0.63450003 4294953984
-4.5764999 -1.3005 -0.6275 4294953984
-4.5955 -1.2835 -0.63450003 4294953984
-4.5865002 -1.2865 -0.63349998 4294953984
-4.5815001 -1.2925 -0.62550002 4294953984
-4.5914998 -1.2865 -0.62650001 4294953984
-3.7525001 -1.5925 -0.62849998 4294953984
-4.5714998 -1.3065 -0.63249999 4294953984
-4.0714998 -1.7985001 -0.63450003 4294953984
-4.5405002 -1.3435 -0.63349998 4294953984
-4.3965001 -1.4065 -0.63349998 4294953984
-4.3885002 -1.4005001 -0.6365 4294953984
-4.3924999 -1.4055001 -0.62650001 4294953984
-4.3755002 -1.3954999 -0.62950003 4294953984
-4.3715 -1.3855 -0.63150001 4294953984
-4.3594999 -1.3775001 -0.63849998 4294953984
-4.3635001 -1.3805 -0.63050002 4294953984
-4.3555002 -1.3815 -0.6275 4294953984
-4.3525 -1.3715 -0.63050002 4294953984
-3.9295001 -1.5865 -0.63150001 4294953984
-3.8794999 -1.2925 -0.62550002 4294953984
-3.9505 -1.4825 -0.62650001 4294953984
-4.0184999 -1.7775 -0.63849998 4294953984
-3.8445001 -1.6065 -0.63550001 4294953984
-4.3395 -1.3625 -0.64050001 4294953984
-6.1624999 0.71149999 -0.61849999 4294953984
-3.4775 -1.3505 -0.6365 4294953984
-4.2744999 -1.3105 -0.64050001 4294953984
-4.2655001 -1.3015 -0.64050001 4294953984
-4.2564998 -1.2965 -0.6415 4294953984
-4.2435002 -1.2855 -0.6415 4294953984
-6.7234998 0.51349998 -0.63249999 4294953984
-3.7444999 -1.5484999 -0.63150001 4294953984
-4.2515001 -1.5305001 -0.62650001 4294953984
-4.2325001 -1.5295 -0.6275 4294953984
-4.2255001 -1.5255001 -0.62550002 4294953984
-4.2065001 -1.5335 -0.62650001 4294953984
-4.1995001 -1.5135 -0.62550002 4294953984
-4.1985002 -1.5045 -0.62550002 4294953984
-4.1694999 -1.5245 -0.62550002 4294953984
-4.1884999 -1.5165 -0.6275 4294953984
-4.1884999 -1.5055 -0.62650001 4294953984
-4.1745 -1.5135 -0.62650001 4294953984
-4.2014999 -1.4905 -0.62550002 4294953984
-4.1684999 -1.4974999 -0.62650001 4294953984
-4.1824999 -1.4875 -0.62550002 4294953984
-4.1285 -1.5305001 -0.62849998 4294953984
-4.1545 -1.5145 -0.62650001 4294953984
-4.1185002 -1.5325 -0.62950003 4294953984
-4.1135001 -1.5255001 -0.62849998 4294953984
-4.1044998 -1.5245 -0.63050002 4294953984
-4.0974998 -1.5195 -0.63050002 4294953984
-4.1564999 -1.4995 -0.62550002 4294953984
-4.1545 -1.4885 -0.62650001 4294953984
-4.1374998 -1.5005 -0.6275 4294953984
-4.1385002 -1.4835 -0.62550002 4294953984
-4.1434999 -1.4725 -0.6275 4294953984
-6.4074998 0.68949997 -0.6225 4294953984
-3.0395 -0.33450001 -0.62550002 4294953984
-3.5065 -1.1275001 -0.62550002 4294953984
-4.1595001 -1.4715 -0.6275 4294953984
-4.1304998 -1.4715 -0.62650001 4294953984
-4.1345 -1.4625 -0.62550002 4294953984
-4.1535001 -1.4495 -0.6275 4294953984
-4.1455002 -1.4555 -0.62650001 4294953984
-4.0974998 -1.4425 -0.6275 4294953984
-4.1485 -1.4395 -0.62550002 4294953984
-4.1125002 -1.4245 -0.62449998 4294953984
-4.1275001 -1.4175 -0.62550002 4294953984
-4.1195002 -1.4205 -0.62550002 4294953984
-4.0974998 -1.4205 -0.62550002 4294953984
-4.3315001 -1.3925 -0.63550001 4294953984
-4.3455 -1.3745 -0.62550002 4294953984
-4.3445001 -1.3655 -0.62950003 4294953984
-4.3375001 -1.3605 -0.63050002 4294953984
-4.3315001 -1.3555 -0.63749999 4294953984
-4.3225002 -1.3485 -0.6365 4294953984
-4.3305001 -1.3545001 -0.62650001 4294953984
-3.7375 -1.3904999 -0.63550001 4294953984
-4.3134999 -1.3405 -0.63349998 4294953984
-4.3055 -1.3345 -0.63550001 4294953984
-4.3165002 -1.3435 -0.62449998 4294953984
-4.3095002 -1.3385 -0.62550002 4294953984
-4.2975001 -1.3285 -0.63249999 4294953984
-4.2884998 -1.3214999 -0.63349998 4294953984
-4.2934999 -1.3245 -0.62650001 4294953984
-4.2814999 -1.3155 -0.6365 4294953984
-4.2824998 -1.3175 -0.62650001 4294953984
-2.7885001 -0.63050002 -0.63150001 4294953984
-4.2735 -1.3095 -0.63249999 4294953984
-4.2595 -1.2975 -0.63249999 4294953984
-4.2674999 -1.3045 -0.63050002 4294953984
-4.2585001 -1.2975 -0.62449998 4294953984
-4.2515001 -1.3005 -0.6275 4294953984
-4.2424998 -1.2845 -0.63349998 4294953984
-4.2405 -1.2905 -0.6275 4294953984
-4.2395 -1.2915 -0.63749999 4294953984
-4.2305002 -1.2835 -0.6365 4294953984
-4.2375002 -1.2805001 -0.62650001 4294953984
-4.2284999 -1.2805001 -0.62449998 4294953984
-3.3375001 -1.1605 -0.63749999 4294953984
-2.7165 -0.28749999 -0.62449998 4294953984
-3.4224999 -1.2605 -0.63950002 4294953984
-2.7244999 -0.3935 -0.62849998 4294953984
-6.4404998 0.55449998 -0.63550001 4294953984
-6.1915002 0.57849997 -0.61949998 4294953984
-4.5955 -1.2755001 -0.64050001 4294953984
-4.6015 -1.2665 -0.6415 4294953984
-4.6025 -1.2735 -0.63349998 4294953984
-6.4124999 0.59350002 -0.6225 4294953984
-4.6034999 -1.2654999 -0.63249999 4294953984
-4.5925002 -1.2775 -0.62550002 4294953984
-3.1954999 -0.65750003 -0.62550002 4294953984
-3.9384999 -1.5955 -0.63950002 4294953984
-3.2625 -1.1325001 -0.63849998 4294953984
-2.8805001 -0.59149998 -0.6365 4294953984
-2.6984999 -0.4765 -0.6365 4294953984
-3.7774999 -1.3555 -0.63349998 4294953984
-6.3484998 0.072499998 -0.63249999 4294953984
-3.9365001 -1.3505 -0.62449998 4294953984
-3.4045 -1.1305 -0.6225 4294953984
-6.4605002 0.1955 -0.62950003 4294953984
-4.0105 -1.5995001 -0.63550001 4294953984
-3.2674999 -1.1445 -0.62849998 4294953984
-4.2084999 -1.2654999 -0.6415 4294953984
-2.8195 -0.61250001 -0.62849998 4294953984
-4.1745 -1.2355 -0.64050001 4294953984
-4.1704998 -1.2265 -0.6415 4294953984
-4.1634998 -1.2205 -0.64050001 4294953984
-3.3215001 -1.0845 -0.63349998 4294953984
-2.8575001 -0.31650001 -0.61949998 4294953984
-4.1405001 -1.2025 -0.6415 4294953984
-6.6525002 0.41049999 -0.62150002 4294953984
-4.1224999 -1.1945 -0.64050001 4294953984
-4.2284999 -1.2735 -0.63749999 4294953984
-4.2175002 -1.2725 -0.6365 4294953984
-4.2084999 -1.2645 -0.63349998 4294953984
-4.2234998 -1.2785 -0.63150001 4294953984
-4.2164998 -1.2735 -0.62449998 4294953984
-4.2224998 -1.2685 -0.62950003 4294953984
-4.2164998 -1.2635 -0.62550002 4294953984
-4.2094998 -1.2585 -0.62550002 4294953984
-4.2075 -1.2565 -0.63550001 4294953984
-4.1945 -1.2535 -0.63249999 4294953984
-4.2005 -1.2575001 -0.62550002 4294953984
-4.1925001 -1.2455 -0.63249999 4294953984
-4.1845002 -1.2455 -0.63450003 4294953984
-4.1824999 -1.2375 -0.63550001 4294953984
-4.1894999 -1.2424999 -0.62550002 4294953984
-4.1815 -1.2365 -0.62650001 4294953984
-4.1725001 -1.2355 -0.63050002 4294953984
-4.1694999 -1.2275 -0.63249999 4294953984
-4.1615 -1.2265 -0.63050002 4294953984
-4.1665001 -1.2305 -0.62550002 4294953984
-3.5395 -1.1965001 -0.63849998 4294953984
-4.1564999 -1.2665 -0.6365 4294953984
-4.1525002 -1.2194999 -0.63749999 4294953984
-4.1515002 -1.2175 -0.62449998 4294953984
-3.2804999 -0.88050002 -0.63749999 4294953984
-2.9755001 -0.65249997 -0.63349998 4294953984
-4.1504998 -1.2125 -0.63349998 4294953984
-4.1465001 -1.2095 -0.62449998 4294953984
-4.1415 -1.2095 -0.63249999 4294953984
-4.1364999 -1.2005 -0.63349998 4294953984
-4.1395001 -1.2035 -0.62550002 4294953984
-4.1294999 -1.1955 -0.63349998 4294953984
-4.1205001 -1.1885 -0.63249999 4294953984
-4.1224999 -1.1955 -0.62550002 4294953984
-4.1125002 -1.1875 -0.63150001 4294953984
-4.1055002 -1.1805 -0.63450003 4294953984
-4.1044998 -1.1765 -0.6275 4294953984
-4.0974998 -1.1734999 -0.62349999 4294953984
-6.6595001 0.5115 -0.63749999 4294953984
-3.9605 -1.6495 -0.64050001 4294953984
-3.9024999 -1.0175 -0.63749999 4294953984
-2.5725 -0.3425 -0.63249999 4294953984
-3.0095 -0.7155 -0.63150001 4294953984
-4.0535002 -1.5275 -0.63050002 4294953984
-3.2974999 -1.2525001 -0.63249999 4294953984
-6.4695001 0.45649999 -0.63450003 4294953984
-6.3575001 0.0515 -0.62849998 4294953984
-2.8345001 -0.60049999 -0.63050002 4294953984
-3.8285 -1.5445 -0.63050002 4294953984
-6.3014998 0.062499996 -0.6365 4294953984
-2.7405 -0.44549999 -0.62150002 4294953984
-2.6705 -0.62650001 -0.63150001 4294953984
-2.8364999 -0.91949999 -0.62050003 4294953984
-6.6824999 0.52950001 -0.63150001 4294953984
-2.6965001 -0.32050002 -0.62550002 4294953984
-3.3534999 -1.1875 -0.62650001 4294953984
-6.3125 0.13349999 -0.63249999 4294953984
-6.4194999 0.49849999 -0.6275 4294953984
-3.6485 -1.4655 -0.62950003 4294953984
-3.2425001 -1.1065 -0.63550001 4294953984
-6.5465002 0.42750001 -0.63749999 4294953984
-3.3485 -1.0355 -0.63849998 4294953984
-6.2305002 0.62050003 -0.62050003 4294953984
-3.6775 -1.3755 -0.63050002 4294953984
-3.3055 -1.0805 -0.63849998 4294953984
-3.6465001 -1.4375 -0.62950003 4294953984
-3.3385 -1.1265 -0.63150001 4294953984
-6.5285001 0.29550001 -0.63349998 4294953984
-3.3575001 -0.92949998 -0.63349998 4294953984
-3.6605 -1.4755 -0.63150001 4294953984
-2.5415001 -0.67949998 -0.63450003 4294953984
-6.3905001 0.097499996 -0.62349999 4294953984
-2.4635 -0.47550002 -0.63450003 4294953984
-5.6915002 0.1105 -0.62550002 4294953984
-2.8954999 -0.36449999 -0.62050003 4294953984
-5.9854999 0.057500001 -0.62150002 4294953984
-6.5995002 0.67250001 -0.62449998 4294953984
-2.7095001 -0.72850001 -0.63050002 4294953984
-2.8965001 -0.74049997 -0.6365 4294953984
-6.4015002 0.2615 -0.63050002 4294953984
-3.7114999 -1.4885 -0.63349998 4294953984
-2.8805001 -0.4835 -0.62650001 4294953984
-2.7574999 -0.56550002 -0.62849998 4294953984
-3.5044999 -1.3415 -0.63749999 4294953984
-3.4795001 -0.90750003 -0.63050002 4294953984
-3.3625 -0.88050002 -0.62050003 4294953984
-3.8564999 -1.5434999 -0.63249999 4294953984
-2.6235001 -0.59249997 -0.63150001 4294953984
-3.7405 -1.4075 -0.62849998 4294953984
-6.1704998 0.1355 -0.6225 4294953984
-6.2624998 0.078500003 -0.6365 4294953984
-2.5125 -0.52149999 -0.6275 4294953984
-3.3954999 -1.1245 -0.62950003 4294953984
-6.3625002 0.61449999 -0.62349999 4294953984
-3.9375 -1.6315 -0.6365 4294953984
-6.5215001 0.63050002 -0.63249999 4294953984
-4.0574999 -1.6404999 -0.63349998 4294953984
-3.9905 -1.7205 -0.63150001 4294953984
-2.9545 -0.79049999 -0.61949998 4294953984
-2.4955001 -0.51249999 -0.62449998 4294953984
-3.6034999 -1.4455 -0.62849998 4294953984
-4.0795002 -1.7155 -0.63749999 4294953984
-3.4254999 -0.91149998 -0.63550001 4294953984
-6.4295001 0.2965 -0.63050002 4294953984
-3.1935 -1.1684999 -0.62449998 4294953984
-6.6595001 0.60649997 -0.62550002 4294953984
-2.8264999 -0.84450001 -0.62950003 4294953984
-6.7024999 0.49250001 -0.62349999 4294953984
-6.2684999 0.23649999 -0.62650001 4294953984
-2.7235 -0.51050001 -0.62650001 4294953984
-3.1365001 -0.6275 -0.62650001 4294953984
-3.5504999 -1.1305 -0.63749999 4294953984
-2.8805001 -0.74650002 -0.63749999 4294953984
-3.3345001 -0.96249998 -0.63050002 4294953984
-3.1485 -1.0475 -0.62449998 4294953984
-3.8824999 -1.7085 -0.62849998 4294953984
-4.0044999 -1.7175 -0.63849998 4294953984
-2.8434999 -0.76450002 -0.6225 4294953984
-3.0545001 -0.71950001 -0.63150001 4294953984
-6.4705 0.84350002 -0.61849999 4294953984
-6.2265 0.12549999 -0.6275 4294953984
-6.5815001 0.41749999 -0.62449998 4294953984
-6.1065001 0.33250001 -0.62849998 4294953984
-2.5664999 -0.52850002 -0.63450003 4294953984
-2.5574999 -0.3545 -0.62650001 4294953984
-4.0485001 -1.7635 -0.63450003 4294953984
-3.6945 -1.5195 -0.63150001 4294953984
-3.7335 -1.3465 -0.63349998 4294953984
-3.1164999 -0.97850001 -0.63349998 4294953984
-4.0395002 -1.1265 -0.63450003 4294953984
-3.6064999 -1.1285 -0.62650001 4294953984
-2.9345 -0.89350003 -0.63150001 4294953984
-3.7365 -1.4015 -0.63249999 4294953984
-3.9165001 -1.3635 -0.62449998 4294953984
-3.8175001 -1.6454999 -0.63050002 4294953984
-3.9215 -1.4785 -0.62849998 4294953984
-3.4755001 -1.2855 -0.63550001 4294953984
-6.3515 0.5255 -0.62349999 4294953984
-2.7255001 -0.5575 -0.6365 4294953984
-3.2974999 -1.0675 -0.63749999 4294953984
-5.9724998 0.098499998 -0.62449998 4294953984
-6.5885 0.33050001 -0.62650001 4294953984
-2.8525 -0.30250001 -0.61849999 4294953984
-6.0784998 0.20550001 -0.6365 4294953984
-2.9645 -0.53049999 -0.63050002 4294953984
-2.4645 -0.41249999 -0.63450003 4294953984
-4.0075002 -1.3535 -0.6275 4294953984
-3.9614999 -1.4585 -0.62849998 4294953984
-6.4784999 0.52950001 -0.63050002 4294953984
-6.2874999 0.4145 -0.6365 4294953984
-6.4025002 0.13349999 -0.63349998 4294953984
-3.0174999 -0.46450001 -0.6225 4294953984
-3.8475001 -1.2654999 -0.62349999 4294953984
-6.5535002 0.49149999 -0.63249999 4294953984
-3.9695001 -1.6745 -0.63550001 4294953984
-6.5685 0.50749999 -0.63450003 4294953984
-2.4974999 -0.4675 -0.61650002 4294953984
-3.4354999 -0.88749999 -0.62950003 4294953984
-3.7295001 -0.88050002 -0.62150002 4294953984
-3.9345 -1.4485 -0.62550002 4294953984
-3.7255001 -1.2955 -0.63150001 4294953984
-6.4575 0.25349998 -0.63249999 4294953984
-6.6525002 0.47350001 -0.6365 4294953984
-3.2945001 -1.0944999 -0.62849998 4294953984
-6.1564999 0.50150001 -0.62349999 4294953984
-6.1904998 0.51849997 -0.61949998 4294953984
-2.5504999 -0.47550002 -0.62650001 4294953984
-3.9165001 -1.6195 -0.63349998 4294953984
-6.3125 0.087499999 -0.63150001 4294953984
-3.4414999 -1.2625 -0.63550001 4294953984
-6.2915001 0.0605 -0.6365 4294953984
-2.7795 -0.63450003 -0.63550001 4294953984
-3.0295 -0.74349999 -0.63349998 4294953984
-6.7014999 0.52149999 -0.63749999 4294953984
-3.2715001 -1.1275001 -0.63349998 4294953984
-3.4695001 -1.0825 -0.6225 4294953984
-3.9965 -1.3415 -0.62550002 4294953984
-2.6675 -0.42550001 -0.62550002 4294953984
-3.8425 -1.5525 -0.63050002 4294953984
-2.7375 -0.5345 -0.6275 4294953984
-2.9484999 -0.74250001 -0.61949998 4294953984
-2.4795001 -0.63050002 -0.63249999 4294953984
-3.4595001 -1.2205 -0.63849998 4294953984
-3.6245 -1.4025 -0.63050002 4294953984
-6.5815001 0.40849999 -0.63150001 4294953984
-3.0664999 -0.57849997 -0.61849999 4294953984
-3.5185001 -1.0105 -0.63349998 4294953984
-2.7255001 -0.47350001 -0.63450003 4294953984
-6.1935 0.058499999 -0.6365 4294953984
-4.0454998 -1.1305 -0.62550002 4294953984
-3.1125 -0.57349998 -0.62349999 4294953984
-4.0454998 -1.3975 -0.62650001 4294953984
-3.7045 -1.5335 -0.62950003 4294953984
-3.9525001 -1.7805001 -0.62849998 4294953984
-6.6764998 0.48949999 -0.63749999 4294953984
-3.4965 -1.1215 -0.63749999 4294953984
-2.7945001 -0.48050001 -0.62950003 4294953984
-6.2135 0.0024999983 -0.63349998 4294953984
-2.9885001 -0.73049998 -0.63450003 4294953984
-3.2565 -1.1315 -0.6275 4294953984
-2.8455 -0.34850001 -0.6225 4294953984
-6.7104998 0.50749999 -0.62449998 4294953984
-3.3325 -0.9975 -0.63550001 4294953984
-3.8875 -1.2685 -0.62550002 4294953984
-3.9614999 -1.6235 -0.63950002 4294953984
-2.6565001 -0.26449999 -0.6225 4294953984
-3.3745 -1.2185 -0.63849998 4294953984
-2.7785001 -0.5395 -0.62449998 4294953984
-4.0935001 -1.6275001 -0.63450003 4294953984
-6.3855 0.55449998 -0.6275 4294953984
-3.6485 -1.0485001 -0.62950003 4294953984
-2.6385 -0.27149999 -0.6225 4294953984
-3.5964999 -1.0035 -0.62550002 4294953984
-3.9175 -1.5325 -0.63249999 4294953984
-6.2554998 0.66049999 -0.62050003 4294953984
-2.7934999 -0.65350002 -0.62550002 4294953984
-3.1875 -0.56550002 -0.61849999 4294953984
-6.2305002 0.59350002 -0.61949998 4294953984
-3.7305 -1.5085 -0.63050002 4294953984
-6.4025002 0.49149999 -0.63550001 4294953984
-6.3874998 0.17749999 -0.63249999 4294953984
-2.9565001 -0.70950001 -0.63749999 4294953984
-2.8104999 -0.34349999 -0.62349999 4294953984
-2.8705001 -0.42449999 -0.62550002 4294953984
-2.9105 -0.88950002 -0.63249999 4294953984
-6.3765001 0.60750002 -0.6225 4294953984
-3.3485 -1.0255001 -0.63849998 4294953984
-2.9414999 -0.67049998 -0.6365 4294953984
-3.9814999 -1.3635 -0.62650001 4294953984
-2.6454999 -0.42250001 -0.62349999 4294953984
-3.5295 -1.0625 -0.62849998 4294953984
-2.7455001 -0.62849998 -0.63450003 4294953984
-2.7305 -0.48649999 -0.6365 4294953984
-3.3164999 -1.0935 -0.63849998 4294953984
-2.8445001 -0.48050001 -0.62849998 4294953984
-2.9705 -0.8175 -0.62050003 4294953984
-2.9235001 -0.3775 -0.61849999 4294953984
-3.3635001 -1.1965001 -0.63749999 4294953984
-2.7555001 -0.41150001 -0.62650001 4294953984
-4.0405002 -1.6605 -0.63450003 4294953984
-6.3225002 0.60649997 -0.62849998 4294953984
-3.9744999 -1.7945 -0.62849998 4294953984
-4.0205002 -1.4545 -0.62849998 4294953984
-2.4695001 -0.45750001 -0.63550001 4294953984
-3.7465 -1.3735 -0.63249999 4294953984
-2.9784999 -0.70249999 -0.63249999 4294953984
-6.5704999 0.34149998 -0.62650001 4294953984
-3.7855 -1.2865 -0.62849998 4294953984
-6.0735002 0.3495 -0.62950003 4294953984
-2.7255001 -0.59149998 -0.63249999 4294953984
-2.9254999 -0.69349998 -0.63249999 4294953984
-5.6615 -0.8405 -0.64050001 4294953984
-5.7084999 -0.81849998 -0.6415 4294953984
-5.6335001 -0.82050002 -0.64050001 4294953984
-5.6954999 -0.79750001 -0.6415 4294953984
-5.6764998 -0.7895 -0.64050001 4294953984
-5.6935 -0.77350003 -0.6415 4294953984
-5.9935002 0.1705 -0.62349999 4294953984
-3.1865001 -0.54549998 -0.61849999 4294953984
-2.9465001 -0.5205 -0.6275 4294953984
-6.5005002 0.2105 -0.62849998 4294953984
-2.5044999 -0.4215 -0.62950003 4294953984
-3.6645 -1.4595 -0.63050002 4294953984
-6.5174999 0.42250001 -0.63749999 4294953984
-2.5804999 -0.54650003 -0.63050002 4294953984
-3.0845001 -0.4585 -0.61949998 4294953984
-2.5825 -0.7105 -0.63450003 4294953984
-3.7845001 -1.5195 -0.62950003 4294953984
-3.1245 -1.0515 -0.62950003 4294953984
-5.6335001 -0.89649999 -0.62950003 4294953984
-2.6914999 -0.41550002 -0.62349999 4294953984
-6.1034999 0.1175 -0.6365 4294953984
-3.1055 -0.5625 -0.62349999 4294953984
-3.6824999 -0.84250003 -0.62349999 4294953984
-5.8095002 0.26350001 -0.63150001 4294953984
-2.7014999 -0.67650002 -0.63249999 4294953984
-4.0535002 -1.7545 -0.62650001 4294953984
-4.0774999 -1.5265 -0.63050002 4294953984
-5.6424999 -0.88950002 -0.63150001 4294953984
-5.6374998 -0.88249999 -0.63050002 4294953984
-5.6434999 -0.87950003 -0.63950002 4294953984
-5.6364999 -0.87050003 -0.63849998 4294953984
-5.6455002 -0.87449998 -0.63050002 4294953984
-5.6345 -0.87650001 -0.62550002 4294953984
-5.6385002 -0.86750001 -0.62849998 4294953984
-5.6655002 -0.85049999 -0.62849998 4294953984
-5.6785002 -0.83450001 -0.62849998 4294953984
-5.6525002 -0.85549998 -0.62950003 4294953984
-5.6434999 -0.85650003 -0.63550001 4294953984
-5.6355 -0.84750003 -0.6365 4294953984
-5.6455002 -0.83749998 -0.6365 4294953984
-5.6335001 -0.83749998 -0.63249999 4294953984
-5.6434999 -0.83649999 -0.6275 4294953984
-2.6835001 -0.7755 -0.63349998 4294953984
-5.7845001 0.2315 -0.62150002 4294953984
-5.7024999 -0.78850001 -0.63050002 4294953984
-5.7045002 -0.77450001 -0.63950002 4294953984
-5.7055001 -0.76850003 -0.63249999 4294953984
-5.7005 -0.77749997 -0.62650001 4294953984
-3.2184999 -0.86549997 -0.6225 4294953984
-5.6925001 -0.81950003 -0.63050002 4294953984
-5.6694999 -0.81950003 -0.63849998 4294953984
-5.6715002 -0.82450002 -0.63050002 4294953984
-5.6795001 -0.8175 -0.62849998 4294953984
-5.6824999 -0.80849999 -0.62950003 4294953984
-5.6954999 -0.80150002 -0.63050002 4294953984
-5.6865001 -0.80049998 -0.62650001 4294953984
-5.6754999 -0.80150002 -0.62550002 4294953984
-5.6485 -0.81849998 -0.63249999 4294953984
-5.6395001 -0.8265 -0.62550002 4294953984
-5.6605 -0.81550002 -0.6365 4294953984
-5.6405001 -0.80049998 -0.63450003 4294953984
-5.6335001 -0.81050003 -0.62650001 4294953984
-5.6945 -0.79049999 -0.62650001 4294953984
-5.6865001 -0.79150003 -0.62849998 4294953984
-5.6754999 -0.79350001 -0.62849998 4294953984
-5.6735001 -0.7845 -0.62950003 4294953984
-5.6865001 -0.77850002 -0.6365 4294953984
-5.6805 -0.77149999 -0.63249999 4294953984
-5.6655002 -0.78250003 -0.63849998 4294953984
-5.6684999 -0.7755 -0.63050002 4294953984
-5.6675 -0.76850003 -0.62550002 4294953984
-4.0174999 -1.6375 -0.63450003 4294953984
-5.6535001 -0.79750001 -0.63050002 4294953984
-5.6405001 -0.79549998 -0.62550002 4294953984
-5.6444998 -0.78049999 -0.62650001 4294953984
-4.0155001 -1.7685 -0.63950002 4294953984
-3.2555001 -1.2395 -0.63150001 4294953984
-6.0324998 0.1725 -0.63050002 4294953984
-2.6315 -0.66549999 -0.63050002 4294953984
-3.1805 -0.6595 -0.6275 4294953984
-2.6494999 -0.29750001 -0.62449998 4294953984
-6.0304999 0.057500001 -0.62449998 4294953984
-3.3485 -0.9375 -0.6365 4294953984
-5.9015002 -0.51850003 -0.64050001 4294953984
-4.0654998 -1.7405 -0.62950003 4294953984
-2.4855001 -0.51050001 -0.62150002 4294953984
-6.4885001 0.70649999 -0.62849998 4294953984
-2.8034999 -0.51950002 -0.6225 4294953984
-2.7674999 -0.67750001 -0.6275 4294953984
-2.8945 -0.9375 -0.6225 4294953984
-2.7595 -0.2225 -0.61750001 4294953984
-6.1894999 0.18249999 -0.63150001 4294953984
-3.7275 -1.3365 -0.62650001 4294953984
-2.7844999 -0.4425 -0.63150001 4294953984
-3.7365 -1.3705 -0.63050002 4294953984
-6.3024998 0.080499999 -0.6365 4294953984
-2.5355 -0.51749998 -0.63050002 4294953984
-6.3505001 0.48649999 -0.62449998 4294953984
-2.8954999 -0.67949998 -0.63349998 4294953984
-6.2205 0.59649998 -0.61949998 4294953984
-6.6424999 0.61849999 -0.62449998 4294953984
-3.9265001 -1.7385 -0.63050002 4294953984
-2.9575 -0.66250002 -0.63550001 4294953984
-6.4625001 0.6085 -0.6275 4294953984
-6.0015001 0.077500001 -0.6225 4294953984
-3.7284999 -1.3674999 -0.63550001 4294953984
-6.4794998 0.47549999 -0.6365 4294953984
-4.0114999 -1.6195 -0.63749999 4294953984
-5.9134998 -0.51249999 -0.6365 4294953984
-2.7945001 -0.50650001 -0.62150002 4294953984
-2.4384999 -0.4765 -0.63450003 4294953984
-5.6535001 -0.70550001 -0.6415 4294953984
-5.6455002 -0.69450003 -0.6415 4294953984
-2.4735 -0.57849997 -0.62349999 4294953984
-6.4115 0.18349999 -0.63550001 4294953984
-6.4235001 0.55650002 -0.63150001 4294953984
-4.0314999 -1.6625 -0.63150001 4294953984
-6.0644999 0.2965 -0.63050002 4294953984
-2.7225001 -0.78350002 -0.62849998 4294953984
-5.7934999 -0.59450001 -0.64050001 4294953984
-5.7645001 -0.5905 -0.64050001 4294953984
-5.7694998 -0.58149999 -0.64050001 4294953984
-5.8804998 -0.56050003 -0.64050001 4294953984
-5.8855 -0.54949999 -0.64050001 4294953984
-2.6135001 -0.49950001 -0.63249999 4294953984
-3.7505 -1.5325 -0.63150001 4294953984
-2.7444999 -0.2755 -0.62150002 4294953984
-3.5005 -1.2315 -0.6225 4294953984
-2.4484999 -0.60650003 -0.62449998 4294953984
-3.9005001 -1.3835 -0.62650001 4294953984
-2.8494999 -0.18450001 -0.62849998 4294953984
-6.2705002 0.1805 -0.63349998 4294953984
-2.6615 -0.73449999 -0.62849998 4294953984
-5.7484999 -0.60350001 -0.64050001 4294953984
-2.5235 -0.4095 -0.6275 4294953984
-3.7365 -0.88450003 -0.63950002 4294953984
-2.6945 -0.45950001 -0.62550002 4294953984
-6.3794999 0.1675 -0.63150001 4294953984
-3.6715 -1.3674999 -0.62550002 4294953984
-5.7315001 -0.73949999 -0.63450003 4294953984
-5.7344999 -0.7475 -0.62550002 4294953984
-5.7175002 -0.76550001 -0.63749999 4294953984
-5.7135 -0.75849998 -0.63249999 4294953984
-5.7265 -0.75749999 -0.62849998 4294953984
-2.7155001 -0.1525 -0.63450003 4294953984
-5.7224998 -0.74849999 -0.6275 4294953984
-5.7034998 -0.74949998 -0.63550001 4294953984
-5.7065001 -0.74049997 -0.63450003 4294953984
-2.6805 -0.42449999 -0.62550002 4294953984
-5.7564998 -0.72250003 -0.62650001 4294953984
-5.7424998 -0.73150003 -0.62550002 4294953984
-5.7424998 -0.72049999 -0.62849998 4294953984
-5.7344999 -0.72049999 -0.63150001 4294953984
-5.7294998 -0.70950001 -0.6275 4294953984
-5.7135 -0.73049998 -0.6365 4294953984
-5.7245002 -0.7245 -0.62849998 4294953984
-5.7084999 -0.72250003 -0.62950003 4294953984
-5.7145 -0.71649998 -0.6365 4294953984
-6.1195002 0.019499999 -0.63150001 4294953984
-5.7075 -0.70749998 -0.63849998 4294953984
-5.7115002 -0.70850003 -0.63150001 4294953984
-5.6855001 -0.76249999 -0.63349998 4294953984
-6.4064999 0.24249999 -0.63249999 4294953984
-5.6894999 -0.75550002 -0.63349998 4294953984
-3.5265 -1.4165 -0.62950003 4294953984
-5.6824999 -0.74449998 -0.62650001 4294953984
-5.6504998 -0.75550002 -0.62550002 4294953984
-5.6564999 -0.74150002 -0.62449998 4294953984
-5.6355 -0.73949999 -0.6275 4294953984
-5.6675 -0.7295 -0.6365 4294953984
-5.6805 -0.71850002 -0.63749999 4294953984
-5.6834998 -0.70550001 -0.63349998 4294953984
-5.6785002 -0.71850002 -0.62449998 4294953984
-5.6554999 -0.72549999 -0.63050002 4294953984
-5.6415 -0.73049998 -0.63349998 4294953984
-5.6634998 -0.71149999 -0.63450003 4294953984
-5.6475 -0.70950001 -0.62449998 4294953984
-5.7544999 -0.6875 -0.63249999 4294953984
-5.7325001 -0.68449998 -0.6365 4294953984
-5.7275 -0.6925 -0.6365 4294953984
-5.7224998 -0.6965 -0.62950003 4294953984
-5.7034998 -0.69849998 -0.63349998 4294953984
-5.7075 -0.68949997 -0.63249999 4294953984
-5.7005 -0.68949997 -0.62449998 4294953984
-5.6935 -0.70350003 -0.63749999 4294953984
-5.6945 -0.6825 -0.63550001 4294953984
-5.6405001 -0.69050002 -0.63550001 4294953984
-5.6415 -0.68150002 -0.6275 4294953984
-5.6815 -0.67150003 -0.63950002 4294953984
-5.6735001 -0.64749998 -0.62550002 4294953984
-5.6504998 -0.65450001 -0.62550002 4294953984
-5.6615 -0.6455 -0.62550002 4294953984
-5.6325002 -0.64850003 -0.63349998 4294953984
-2.7644999 -0.2405 -0.61750001 4294953984
-6.3604999 0.69849998 -0.6225 4294953984
-3.2465 -0.80650002 -0.62950003 4294953984
-3.4944999 -1.2975 -0.63950002 4294953984
-3.9655001 -1.7575001 -0.62849998 4294953984
-5.7965002 -0.62349999 -0.62550002 4294953984
-5.7605 -0.62650001 -0.63150001 4294953984
-5.7814999 -0.61250001 -0.6365 4294953984
-5.8065 -0.60549998 -0.63749999 4294953984
-5.8105001 -0.58450001 -0.63950002 4294953984
-3.4614999 -1.0735 -0.63849998 4294953984
-5.7694998 -0.59850001 -0.6365 4294953984
-5.7605 -0.59350002 -0.63249999 4294953984
-5.7814999 -0.58450001 -0.63450003 4294953984
-5.7895002 -0.58050001 -0.63550001 4294953984
-5.7775002 -0.5765 -0.63749999 4294953984
-5.7845001 -0.57849997 -0.62950003 4294953984
-5.7605 -0.58450001 -0.6365 4294953984
-5.7614999 -0.58450001 -0.6275 4294953984
-5.7725 -0.58350003 -0.62849998 4294953984
-3.2054999 -1.1404999 -0.63749999 4294953984
-5.8845 -0.54549998 -0.63349998 4294953984
-5.8645 -0.55550003 -0.63749999 4294953984
-5.8435001 -0.57249999 -0.63749999 4294953984
-5.8544998 -0.5675 -0.63749999 4294953984
-5.8515 -0.55949998 -0.6365 4294953984
-5.8505001 -0.5485 -0.63349998 4294953984
-5.8435001 -0.54449999 -0.63150001 4294953984
-5.8334999 -0.55550003 -0.63349998 4294953984
-5.8255 -0.55650002 -0.62650001 4294953984
-5.8664999 -0.54049999 -0.6365 4294953984
-5.8614998 -0.53049999 -0.63349998 4294953984
-5.8724999 -0.5205 -0.63450003 4294953984
-5.8625002 -0.51249999 -0.6275 4294953984
-5.8505001 -0.54049999 -0.63249999 4294953984
-2.6454999 -0.38249999 -0.63450003 4294953984
-5.8414998 -0.53149998 -0.62950003 4294953984
-5.8305001 -0.5395 -0.62650001 4294953984
-5.8284998 -0.53049999 -0.62650001 4294953984
-5.8515 -0.51950002 -0.6275 4294953984
-6.2214999 0.1705 -0.62950003 4294953984
-5.8105001 -0.56849998 -0.63550001 4294953984
-5.8144999 -0.56050003 -0.63150001 4294953984
-5.7934999 -0.5675 -0.63349998 4294953984
-5.8045001 -0.5625 -0.62849998 4294953984
-5.7965002 -0.56150001 -0.62849998 4294953984
-5.8185 -0.5535 -0.63349998 4294953984
-5.8014998 -0.5535 -0.62449998 4294953984
-5.7845001 -0.57050002 -0.63050002 4294953984
-5.7895002 -0.56849998 -0.62449998 4294953984
-5.8175001 -0.54149997 -0.62650001 4294953984
-5.8144999 -0.52350003 -0.6365 4294953984
-3.6935 -1.3575 -0.63550001 4294953984
-5.7554998 -0.63450003 -0.62449998 4294953984
-5.7405 -0.63849998 -0.62550002 4294953984
-2.8304999 -0.6735 -0.62349999 4294953984
-6.4825001 0.77749997 -0.62349999 4294953984
-3.8705001 -1.4195 -0.62950003 4294953984
-5.7154999 -0.62550002 -0.6275 4294953984
-5.6995001 -0.62550002 -0.62849998 4294953984
-5.7275 -0.6135 -0.63749999 4294953984
-5.6995001 -0.61650002 -0.62650001 4294953984
-5.7535 -0.59350002 -0.63849998 4294953984
-5.7455001 -0.59549999 -0.63249999 4294953984
-5.7395 -0.60549998 -0.63450003 4294953984
-5.7305002 -0.6045 -0.63249999 4294953984
-5.7364998 -0.59649998 -0.62849998 4294953984
-5.7525001 -0.58850002 -0.62849998 4294953984
-5.7135 -0.6045 -0.6365 4294953984
-2.9805 -0.52350003 -0.61849999 4294953984
-5.7234998 -0.5995 -0.63249999 4294953984
-5.7145 -0.59750003 -0.63050002 4294953984
-5.7034998 -0.6045 -0.63349998 4294953984
-5.7094998 -0.59549999 -0.62449998 4294953984
-5.7024999 -0.59249997 -0.6275 4294953984
-5.7255001 -0.5905 -0.63550001 4294953984
-5.6945 -0.6085 -0.63150001 4294953984
-5.6865001 -0.61150002 -0.62449998 4294953984
-3.3515 -0.99250001 -0.62550002 4294953984
-2.9855001 -0.5165 -0.63050002 4294953984
-5.6855001 -0.59750003 -0.63450003 4294953984
-5.6845002 -0.60250002 -0.62550002 4294953984
-5.6954999 -0.59850001 -0.63150001 4294953984
-5.6735001 -0.60149997 -0.62849998 4294953984
-5.6675 -0.59649998 -0.62550002 4294953984
-5.6925001 -0.59149998 -0.63450003 4294953984
-5.6855001 -0.58850002 -0.63950002 4294953984
-5.6875 -0.5905 -0.6275 4294953984
-5.6954999 -0.5765 -0.6275 4294953984
-5.6754999 -0.58649999 -0.63349998 4294953984
-5.6694999 -0.57849997 -0.62950003 4294953984
-5.6574998 -0.57849997 -0.63450003 4294953984
-5.6605 -0.5855 -0.6275 4294953984
-5.6515002 -0.57950002 -0.62550002 4294953984
-3.3534999 -1.0775 -0.62849998 4294953984
-5.6954999 -0.54750001 -0.63349998 4294953984
-5.6574998 -0.5715 -0.6275 4294953984
-5.6444998 -0.57349998 -0.63749999 4294953984
-5.6434999 -0.56349999 -0.62449998 4294953984
-5.6504998 -0.55849999 -0.62849998 4294953984
-5.6355 -0.5535 -0.63849998 4294953984
-5.6374998 -0.55550003 -0.62849998 4294953984
-2.4595001 -0.49349999 -0.61750001 4294953984
-2.4905 -0.52950001 -0.62449998 4294953984
-6.4584999 0.56349999 -0.63749999 4294953984
-6.5964999 0.34450001 -0.6275 4294953984
-6.6135001 0.6735 -0.62650001 4294953984
-2.7795 -0.50950003 -0.63450003 4294953984
-6.5275002 0.40849999 -0.6365 4294953984
-4.0625 -1.7654999 -0.62849998 4294953984
-3.7825 -1.4345 -0.63050002 4294953984
-4.0005002 -1.3485 -0.62449998 4294953984
-3.3545001 -0.98650002 -0.63950002 4294953984
-6.2665 0.4215 -0.63450003 4294953984
-2.7045 -0.53549999 -0.63349998 4294953984
-2.9535 -0.61650002 -0.63550001 4294953984
-6.5105 0.27450001 -0.63150001 4294953984
-3.1965001 -0.62849998 -0.62349999 4294953984
-3.9695001 -1.6964999 -0.63950002 4294953984
-3.3025 -1.0915 -0.63150001 4294953984
-2.9665 -0.56849998 -0.63050002 4294953984
-2.5525 -0.62349999 -0.62650001 4294953984
-2.9085 -0.7895 -0.62650001 4294953984
-2.6535001 -0.3355 -0.6275 4294953984
-3.6224999 -1.0505 -0.63050002 4294953984
-2.4814999 -0.41550002 -0.63450003 4294953984
-3.7934999 -1.5745 -0.63050002 4294953984
-3.6895001 -1.3315001 -0.62650001 4294953984
-6.4625001 0.63150001 -0.62849998 4294953984
-2.3954999 -0.55550003 -0.6365 4294953984
-3.7974999 -1.2865 -0.62950003 4294953984
-2.9744999 -0.4795 -0.62550002 4294953984
-6.5524998 0.3655 -0.62950003 4294953984
-2.9935 -0.70950001 -0.61949998 4294953984
-2.8104999 -0.69050002 -0.62449998 4294953984
-2.7635 -0.49950001 -0.62349999 4294953984
-5.5854998 -0.97149998 -0.64050001 4294953984
-5.5475001 -0.97149998 -0.64050001 4294953984
-5.4794998 -1.0215 -0.64050001 4294953984
-5.4935002 -0.98549998 -0.64050001 4294953984
-5.4705 -0.9885 -0.6415 4294953984
-5.5984998 -0.89350003 -0.64050001 4294953984
-5.6275001 -0.8585 -0.64050001 4294953984
-5.6185002 -0.85049999 -0.6415 4294953984
-5.5514998 -0.84149998 -0.64050001 4294953984
-5.5755 -0.79449999 -0.64050001 4294953984
-5.5854998 -1.0204999 -0.63450003 4294953984
-5.6314998 -0.98949999 -0.63749999 4294953984
-5.5955 -0.96450001 -0.63150001 4294953984
-2.9265001 -0.3845 -0.62150002 4294953984
-5.5504999 -1.0105 -0.63950002 4294953984
-5.5374999 -1.0135 -0.6365 4294953984
-5.5184999 -1.0204999 -0.63450003 4294953984
-5.5075002 -1.0215 -0.63550001 4294953984
-5.5075002 -1.0225 -0.62650001 4294953984
-5.5155001 -1.0125 -0.63150001 4294953984
-5.5064998 -1.0145 -0.63050002 4294953984
-5.5304999 -1.0045 -0.63249999 4294953984
-5.5205002 -1.0035 -0.62849998 4294953984
-5.5114999 -1.0045 -0.63050002 4294953984
-5.5574999 -0.98150003 -0.63749999 4294953984
-5.5665002 -0.99049997 -0.62849998 4294953984
-5.5574999 -0.98549998 -0.62550002 4294953984
-6.2005 0.18449999 -0.62650001 4294953984
-5.5395002 -0.98449999 -0.63950002 4294953984
-5.5584998 -0.97250003 -0.6365 4294953984
-5.5425 -0.96850002 -0.6275 4294953984
-5.5295 -0.99049997 -0.63249999 4294953984
-5.5295 -0.97149998 -0.62849998 4294953984
-3.0345001 -0.58950001 -0.62950003 4294953984
-5.6275001 -0.95749998 -0.63550001 4294953984
-5.6104999 -0.94450003 -0.63349998 4294953984
-5.6015 -0.95749998 -0.63150001 4294953984
-5.5865002 -0.94550002 -0.62550002 4294953984
-5.5795002 -0.95249999 -0.63749999 4294953984
-5.5974998 -0.94050002 -0.63050002 4294953984
-5.5854998 -0.93150002 -0.62550002 4294953984
-5.6044998 -0.9235 -0.62849998 4294953984
-5.6135001 -0.91750002 -0.63150001 4294953984
-5.6244998 -0.90450001 -0.62950003 4294953984
-5.6034999 -0.91049999 -0.63749999 4294953984
-5.6055002 -0.90249997 -0.63249999 4294953984
-5.5995002 -0.92250001 -0.63849998 4294953984
-5.5935001 -0.92049998 -0.62550002 4294953984
-5.5755 -0.92150003 -0.63950002 4294953984
-5.5695 -0.92650002 -0.63450003 4294953984
-5.5714998 -0.91350001 -0.63150001 4294953984
-5.5925002 -0.89850003 -0.63349998 4294953984
-5.5844998 -0.90350002 -0.63349998 4294953984
-5.5914998 -0.90750003 -0.63150001 4294953984
-2.8434999 -0.80150002 -0.63050002 4294953984
-3.8155 -1.3205 -0.62950003 4294953984
-5.5615001 -0.95649999 -0.63450003 4294953984
-5.5504999 -0.95249999 -0.63849998 4294953984
-5.5365 -0.95749998 -0.63450003 4294953984
-5.5634999 -0.93449998 -0.63349998 4294953984
-5.5524998 -0.93650001 -0.62950003 4294953984
-5.5545001 -0.9285 -0.62849998 4294953984
-5.5254998 -0.95950001 -0.62550002 4294953984
-5.5275002 -0.9515 -0.62550002 4294953984
-5.5095 -0.9465 -0.63249999 4294953984
-5.5335002 -0.9425 -0.63550001 4294953984
-5.5235 -0.9285 -0.63349998 4294953984
-3.2815001 -0.87150002 -0.63849998 4294953984
-5.5444999 -0.92449999 -0.6365 4294953984
-5.5565 -0.90549999 -0.63150001 4294953984
-5.5665002 -0.89950001 -0.62849998 4294953984
-5.5595002 -0.89649999 -0.63150001 4294953984
-5.5524998 -0.89749998 -0.62550002 4294953984
-5.5165 -0.91850001 -0.63150001 4294953984
-5.5114999 -0.91350001 -0.62650001 4294953984
-3.4575 -0.91049999 -0.63550001 4294953984
-5.4905 -1.0065 -0.62950003 4294953984
-5.4805002 -1.0005 -0.63450003 4294953984
-5.4724998 -1.0065 -0.63849998 4294953984
-5.4505 -1.0154999 -0.62550002 4294953984
-5.4635 -0.99949998 -0.63249999 4294953984
-5.4835 -0.96950001 -0.63349998 4294953984
-5.4445 -0.98150003 -0.63550001 4294953984
-5.4124999 -1.0145 -0.63450003 4294953984
-5.4215002 -1.0195 -0.63050002 4294953984
-5.4124999 -1.0165 -0.62550002 4294953984
-5.4215002 -1.0115 -0.62849998 4294953984
-5.4115 -1.0055 -0.63550001 4294953984
-5.4054999 -0.99250001 -0.62550002 4294953984
-5.3794999 -1.0035 -0.63749999 4294953984
-3.2474999 -1.0195 -0.62449998 4294953984
-5.4245 -0.97049999 -0.63550001 4294953984
-5.4365001 -0.96850002 -0.62849998 4294953984
-5.4285002 -0.96249998 -0.6275 4294953984
-5.3835001 -0.98150003 -0.63450003 4294953984
-5.4994998 -0.95249999 -0.63150001 4294953984
-5.5025001 -0.93949997 -0.62849998 4294953984
-5.4924998 -0.9285 -0.62550002 4294953984
-5.4685001 -0.95349997 -0.63749999 4294953984
-5.4415002 -0.92949998 -0.63349998 4294953984
-5.4935002 -0.90450001 -0.62550002 4294953984
-5.4555001 -0.91350001 -0.62849998 4294953984
-5.3814998 -0.93050003 -0.62950003 4294953984
-5.4204998 -0.89950001 -0.63849998 4294953984
-5.3794999 -0.91250002 -0.63450003 4294953984
-5.6265001 -0.89050001 -0.63749999 4294953984
-5.6314998 -0.88150001 -0.63749999 4294953984
-5.6255002 -0.88950002 -0.62550002 4294953984
-5.6094999 -0.88550001 -0.63550001 4294953984
-5.6155 -0.89050001 -0.62650001 4294953984
-5.6114998 -0.88349998 -0.62550002 4294953984
-5.6185002 -0.86849999 -0.63550001 4294953984
-5.5914998 -0.86849999 -0.62650001 4294953984
-5.6185002 -0.8585 -0.63450003 4294953984
-5.6215 -0.8495 -0.63249999 4294953984
-5.6065001 -0.8545 -0.63749999 4294953984
-5.6005001 -0.86150002 -0.62950003 4294953984
-5.6145 -0.85250002 -0.62849998 4294953984
-5.6275001 -0.83749998 -0.63849998 4294953984
-5.6125002 -0.8405 -0.62950003 4294953984
-5.6034999 -0.84549999 -0.62849998 4294953984
-5.5925002 -0.85049999 -0.63550001 4294953984
-5.5784998 -0.85750002 -0.62550002 4294953984
-5.5844998 -0.83350003 -0.63349998 4294953984
-5.5415001 -0.87650001 -0.63249999 4294953984
-5.5105 -0.88550001 -0.6365 4294953984
-5.5135002 -0.89249998 -0.6275 4294953984
-5.5054998 -0.88950002 -0.62650001 4294953984
-5.5044999 -0.8725 -0.63749999 4294953984
-5.5625 -0.84850001 -0.63349998 4294953984
-5.5454998 -0.8635 -0.6275 4294953984
-5.5555 -0.8405 -0.63050002 4294953984
-5.5215001 -0.8355 -0.62950003 4294953984
-5.5194998 -0.83850002 -0.63849998 4294953984
-5.6234999 -0.82450002 -0.63749999 4294953984
-5.6255002 -0.8175 -0.62849998 4294953984
-5.6145 -0.82450002 -0.6275 4294953984
-4.0844998 -1.7495 -0.6365 4294953984
-5.6234999 -0.8035 -0.63749999 4294953984
-5.6104999 -0.80650002 -0.63450003 4294953984
-5.5974998 -0.81650001 -0.63550001 4294953984
-5.5885 -0.8035 -0.63249999 4294953984
-5.5745001 -0.80849999 -0.62650001 4294953984
-5.6104999 -0.79650003 -0.63950002 4294953984
-5.6215 -0.78149998 -0.63450003 4294953984
-5.6065001 -0.77850002 -0.63450003 4294953984
-5.6135001 -0.76950002 -0.62849998 4294953984
-5.5875001 -0.77749997 -0.63249999 4294953984
-5.5805001 -0.7755 -0.63849998 4294953984
-5.5725002 -0.78049999 -0.62449998 4294953984
-5.5795002 -0.77350003 -0.63050002 4294953984
-5.5704999 -0.77450001 -0.63050002 4294953984
-5.5295 -0.80049998 -0.6365 4294953984
-5.5444999 -0.79350001 -0.6365 4294953984
-5.5644999 -0.77850002 -0.63749999 4294953984
-5.5434999 -0.7755 -0.6365 4294953984
-5.5345001 -0.7845 -0.63550001 4294953984
-5.5184999 -0.77649999 -0.63150001 4294953984
-5.4914999 -0.88950002 -0.62550002 4294953984
-5.5005002 -0.86549997 -0.6365 4294953984
-5.4825001 -0.87950003 -0.63550001 4294953984
-5.4464998 -0.86750001 -0.62550002 4294953984
-5.4875002 -0.86049998 -0.63450003 4294953984
-5.4755001 -0.84149998 -0.62849998 4294953984
-5.4355001 -0.8725 -0.62650001 4294953984
-5.3944998 -0.87849998 -0.63050002 4294953984
-5.4805002 -0.81950003 -0.63050002 4294953984
-5.4945002 -0.81550002 -0.63150001 4294953984
-5.4784999 -0.80250001 -0.62950003 4294953984
-5.4645 -0.80449998 -0.63849998 4294953984
-3.3694999 -1.1115 -0.62550002 4294953984
-5.4945002 -0.79150003 -0.63249999 4294953984
-5.4955001 -0.7755 -0.6275 4294953984
-5.4675002 -0.77950001 -0.62849998 4294953984
-5.4505 -0.78149998 -0.63450003 4294953984
-5.4425001 -0.77850002 -0.63349998 4294953984
-5.3934999 -0.8035 -0.62650001 4294953984
-5.4295001 -0.78750002 -0.63050002 4294953984
-5.3825002 -0.78149998 -0.6275 4294953984
-5.3674998 -0.99650002 -0.64050001 4294953984
-5.2595 -0.98750001 -0.6415 4294953984
-5.3365002 -1.0145 -0.63150001 4294953984
-5.3154998 -1.0175 -0.63349998 4294953984
-5.3435001 -0.99550003 -0.63950002 4294953984
-3.7904999 -1.2725 -0.62950003 4294953984
-5.3495002 -0.98049998 -0.63849998 4294953984
-5.3734999 -0.97250003 -0.63349998 4294953984
-5.3594999 -0.96249998 -0.63249999 4294953984
-5.3334999 -0.9655 -0.62849998 4294953984
-5.2874999 -1.0154999 -0.63550001 4294953984
-5.3045001 -1.0075001 -0.63249999 4294953984
-5.2995 -0.99650002 -0.63450003 4294953984
-5.2804999 -1.0065 -0.62849998 4294953984
-5.2645001 -1.0085 -0.6275 4294953984
-5.2795 -0.99650002 -0.63349998 4294953984
-5.2655001 -0.99650002 -0.62950003 4294953984
-5.2544999 -1.0005 -0.6275 4294953984
-5.2595 -0.99150002 -0.6275 4294953984
-5.2795 -0.96850002 -0.63849998 4294953984
-5.3664999 -0.95349997 -0.62650001 4294953984
-5.3534999 -0.9515 -0.62950003 4294953984
-5.3195 -0.9465 -0.63150001 4294953984
-5.3375001 -0.93150002 -0.63050002 4294953984
-5.3614998 -0.92049998 -0.63150001 4294953984
-5.3534999 -0.91350001 -0.63249999 4294953984
-5.3715 -0.90649998 -0.63249999 4294953984
-5.2855 -0.93849999 -0.62950003 4294953984
-5.2915001 -0.9325 -0.62849998 4294953984
-5.2775002 -0.93150002 -0.6275 4294953984
-5.2674999 -0.93550003 -0.62550002 4294953984
-5.3055 -0.90249997 -0.62650001 4294953984
-5.2735 -0.92250001 -0.63050002 4294953984
-5.2665 -0.9145 -0.63150001 4294953984
-5.2765002 -0.91149998 -0.62550002 4294953984
-5.2525001 -0.89749998 -0.62650001 4294953984
-5.2414999 -1.0045 -0.63050002 4294953984
-5.2455001 -0.98650002 -0.62550002 4294953984
-2.8475001 -0.36449999 -0.62449998 4294953984
-5.1424999 -1.0095 -0.6365 4294953984
-2.7825 -0.61650002 -0.63450003 4294953984
-5.1605 -0.98049998 -0.63749999 4294953984
-5.1725001 -0.9605 -0.63849998 4294953984
-5.1255002 -0.9795 -0.63249999 4294953984
-5.1444998 -0.97350001 -0.63849998 4294953984
-5.2395 -0.91049999 -0.62550002 4294953984
-5.2055001 -0.9095 -0.6275 4294953984
-2.9335001 -0.76950002 -0.63450003 4294953984
-5.1694999 -0.93449998 -0.63150001 4294953984
-6.2364998 0.056499995 -0.6275 4294953984
-5.1374998 -0.91049999 -0.62650001 4294953984
-5.1275001 -0.9005 -0.62650001 4294953984
-5.3625002 -0.89249998 -0.62950003 4294953984
-6.1314998 0.33649999 -0.63550001 4294953984
-5.3395 -0.89050001 -0.6275 4294953984
-5.3185 -0.87849998 -0.62650001 4294953984
-5.3685002 -0.85350001 -0.63950002 4294953984
-5.3414998 -0.84149998 -0.63450003 4294953984
-5.2494998 -0.88550001 -0.62449998 4294953984
-5.2744999 -0.8355 -0.62550002 4294953984
-5.3534999 -0.8075 -0.63349998 4294953984
-5.3255 -0.82749999 -0.63050002 4294953984
-5.2605 -0.83149999 -0.62650001 4294953984
-5.2435002 -0.87950003 -0.62950003 4294953984
-5.1915002 -0.8915 -0.62449998 4294953984
-5.1374998 -0.8915 -0.62449998 4294953984
-5.1205001 -0.88749999 -0.62849998 4294953984
-5.2385001 -0.8125 -0.62550002 4294953984
-5.6275001 -0.71450001 -0.6415 4294953984
-5.5124998 -0.76749998 -0.64050001 4294953984
-5.5805001 -0.68650001 -0.64050001 4294953984
-3.3485 -0.97149998 -0.63950002 4294953984
-4.0495 -1.6415 -0.63249999 4294953984
-5.6145 -0.5575 -0.64050001 4294953984
-5.4935002 -0.52950001 -0.64050001 4294953984
-5.6265001 -0.7385 -0.62449998 4294953984
-5.6085 -0.75150001 -0.63050002 4294953984
-5.6185002 -0.72649997 -0.62950003 4294953984
-5.6015 -0.73150003 -0.63849998 4294953984
-5.6085 -0.72049999 -0.63849998 4294953984
-5.6055002 -0.7295 -0.62550002 4294953984
-5.6174998 -0.71649998 -0.63950002 4294953984
-5.6304998 -0.70550001 -0.62849998 4294953984
-5.5974998 -0.71850002 -0.63349998 4294953984
-5.5945001 -0.71450001 -0.62449998 4294953984
-5.5904999 -0.70450002 -0.63050002 4294953984
-5.5654998 -0.74650002 -0.6365 4294953984
-5.5454998 -0.73650002 -0.63050002 4294953984
-5.5345001 -0.76249999 -0.63349998 4294953984
-5.5174999 -0.74250001 -0.62950003 4294953984
-5.5665002 -0.73549998 -0.63550001 4294953984
-5.5634999 -0.72350001 -0.63349998 4294953984
-5.5395002 -0.72049999 -0.62950003 4294953984
-5.5135002 -0.72250003 -0.63550001 4294953984
-5.5244999 -0.70850003 -0.63249999 4294953984
-5.6234999 -0.68849999 -0.6365 4294953984
-5.6055002 -0.7015 -0.63550001 4294953984
-5.6085 -0.6925 -0.63349998 4294953984
-5.6155 -0.70249999 -0.62650001 4294953984
-5.6125002 -0.68550003 -0.6365 4294953984
-2.8264999 -0.46849999 -0.6275 4294953984
-5.5854998 -0.6965 -0.63849998 4294953984
-5.5865002 -0.69050002 -0.62650001 4294953984
-5.5995002 -0.6875 -0.63150001 4294953984
-5.6065001 -0.64050001 -0.62950003 4294953984
-5.5964999 -0.66650003 -0.63450003 4294953984
-5.5755 -0.67049998 -0.63450003 4294953984
-5.5815001 -0.66750002 -0.62550002 4294953984
-5.5925002 -0.6505 -0.63950002 4294953984
-5.5685 -0.6415 -0.63349998 4294953984
-5.5735002 -0.65350002 -0.62650001 4294953984
-5.5095 -0.6875 -0.63349998 4294953984
-5.5574999 -0.66250002 -0.6365 4294953984
-5.5454998 -0.65450001 -0.63450003 4294953984
-5.5064998 -0.66049999 -0.63050002 4294953984
-5.4974999 -0.75849998 -0.63550001 4294953984
-5.4404998 -0.75849998 -0.63150001 4294953984
-5.4664998 -0.74650002 -0.63349998 4294953984
-5.4514999 -0.74949998 -0.63150001 4294953984
-5.5015001 -0.72149998 -0.6275 4294953984
-5.4905 -0.72250003 -0.62950003 4294953984
-5.4984999 -0.70850003 -0.63450003 4294953984
-5.4775 -0.7155 -0.63249999 4294953984
-5.4645 -0.7155 -0.63050002 4294953984
-5.4524999 -0.70649999 -0.6365 4294953984
-5.3775001 -0.74449998 -0.62650001 4294953984
-5.4355001 -0.72250003 -0.63749999 4294953984
-2.7965 -0.2395 -0.61750001 4294953984
-5.3785 -0.73549998 -0.63849998 4294953984
-5.4745002 -0.70249999 -0.63050002 4294953984
-5.4315 -0.66549999 -0.62950003 4294953984
-5.6185002 -0.63550001 -0.63050002 4294953984
-5.6034999 -0.62650001 -0.63849998 4294953984
-5.6164999 -0.6225 -0.62950003 4294953984
-5.6015 -0.61650002 -0.63050002 4294953984
-5.5854998 -0.61449999 -0.63550001 4294953984
-5.5834999 -0.59649998 -0.63349998 4294953984
-5.5764999 -0.58950001 -0.63150001 4294953984
-5.5574999 -0.63950002 -0.6275 4294953984
-5.5545001 -0.61250001 -0.63150001 4294953984
-5.5235 -0.6275 -0.62650001 4294953984
-5.5184999 -0.6085 -0.63550001 4294953984
-5.5524998 -0.60549998 -0.62449998 4294953984
-5.5495 -0.59750003 -0.63150001 4294953984
-5.5434999 -0.58649999 -0.63849998 4294953984
-5.5425 -0.58450001 -0.6275 4294953984
-5.5124998 -0.59350002 -0.62449998 4294953984
-5.5205002 -0.58050001 -0.6275 4294953984
-5.6255002 -0.55949998 -0.63550001 4294953984
-5.6285 -0.55449998 -0.62550002 4294953984
-5.6164999 -0.54750001 -0.62849998 4294953984
-5.5895 -0.54549998 -0.63550001 4294953984
-5.6174998 -0.53750002 -0.63950002 4294953984
-5.6215 -0.54350001 -0.63349998 4294953984
-5.6294999 -0.53250003 -0.62449998 4294953984
-5.6085 -0.5345 -0.62849998 4294953984
-5.6285 -0.52249998 -0.63050002 4294953984
-5.6025 -0.53850001 -0.62349999 4294953984
-5.5964999 -0.5395 -0.6365 4294953984
-5.5875001 -0.52950001 -0.63349998 4294953984
-5.5974998 -0.53049999 -0.62449998 4294953984
-5.5844998 -0.52850002 -0.62449998 4294953984
-5.5825 -0.53850001 -0.63450003 4294953984
-5.5885 -0.5205 -0.62550002 4294953984
-5.5725002 -0.51850003 -0.63749999 4294953984
-5.5725002 -0.5205 -0.62449998 4294953984
-5.5795002 -0.51550001 -0.62449998 4294953984
-5.5395002 -0.57450002 -0.62449998 4294953984
-5.5384998 -0.56349999 -0.62449998 4294953984
-5.5345001 -0.56449997 -0.6365 4294953984
-5.5145001 -0.57550001 -0.62449998 4294953984
-5.5085001 -0.57550001 -0.63050002 4294953984
-5.5285001 -0.54949999 -0.63849998 4294953984
-5.5285001 -0.54650003 -0.62950003 4294953984
-5.5145001 -0.55849999 -0.62950003 4294953984
-5.5254998 -0.53649998 -0.63150001 4294953984
-5.5254998 -0.52749997 -0.62449998 4294953984
-5.5165 -0.52149999 -0.63749999 4294953984
-5.5155001 -0.51249999 -0.63050002 4294953984
-5.4714999 -0.5855 -0.6275 4294953984
-5.4215002 -0.62349999 -0.62550002 4294953984
-5.4274998 -0.6045 -0.62550002 4294953984
-5.4235001 -0.5995 -0.63450003 4294953984
-5.4965 -0.57050002 -0.62849998 4294953984
-5.4994998 -0.52850002 -0.62650001 4294953984
-5.4594998 -0.53250003 -0.62849998 4294953984
-5.4175 -0.56349999 -0.62550002 4294953984
-5.3994999 -0.56349999 -0.63150001 4294953984
-3.8805001 -1.6955 -0.62849998 4294953984
-5.4365001 -0.51450002 -0.62349999 4294953984
-5.3814998 -0.51450002 -0.62550002 4294953984
-2.5415001 -0.37349999 -0.62550002 4294953984
-6.5215001 0.25349998 -0.62449998 4294953984
-2.7825 -0.69749999 -0.6365 4294953984
-6.1525002 0.1075 -0.63050002 4294953984
-2.7414999 -0.2985 -0.62349999 4294953984
-2.7685001 -0.48550001 -0.62650001 4294953984
-6.4605002 0.44850001 -0.63249999 4294953984
-3.8885 -1.7225 -0.62950003 4294953984
-3.3545001 -1.0115 -0.62349999 4294953984
-2.8975 -0.83850002 -0.62150002 4294953984
-2.7385001 -0.40650001 -0.62849998 4294953984
-3.0434999 -0.7665 -0.6365 4294953984
-3.8095 -1.3795 -0.63150001 4294953984
-2.9094999 -0.84649998 -0.6365 4294953984
-5.3185 -0.74049997 -0.63050002 4294953984
-5.3655 -0.72649997 -0.63550001 4294953984
-5.3705001 -0.7295 -0.62550002 4294953984
-5.3655 -0.70450002 -0.62550002 4294953984
-5.3404999 -0.7105 -0.63150001 4294953984
-5.3055 -0.75349998 -0.63050002 4294953984
-5.3515 -0.65649998 -0.63150001 4294953984
-5.3325 -0.65750003 -0.62449998 4294953984
-5.3295002 -0.61049998 -0.62449998 4294953984
-5.3175001 -0.5675 -0.62349999 4294953984
-3.6285 -1.0875 -0.63749999 4294953984
-5.1215 -0.6085 -0.63550001 4294953984
